# 3D point list with one line of data per point:
#   POINT3D_ID, X, Y, Z, R, G, B, ERROR, TRACK[] as (IMAGE_ID, POINT2D_IDX)
# Number of points: 515, mean track length: 3.10875
7564 1.290274977684021 0.9946436285972595 -4.076591968536377 184 184 184 0 7 1718 8 1431
7565 1.376059412956238 0.8373838663101196 -4.234652042388916 188 188 188 0 7 1719 8 1432
7566 1.339626908302307 0.7514368295669556 -4.105170726776123 175 175 175 0 7 1720 8 1433
7567 0.960729718208313 0.4854840040206909 -4.019755363464355 212 212 212 0 7 1721 8 1434
7568 1.139970660209656 0.9153692722320557 -4.000435352325439 187 187 187 0 7 1722 8 1435
7569 0.7507164478302002 0.4908947348594666 -3.776349782943726 150 150 150 0 7 1723 8 1436
7570 1.091785430908203 0.6648263931274414 -4.044525623321533 192 192 192 0 7 1724 8 1437
7571 0.9938613772392273 0.3790225982666016 -3.971579551696777 172 172 172 0 7 1725 8 1438
7572 1.319034337997437 0.4741334915161133 -4.298788547515869 162 162 162 0 7 1726 8 1439
7573 1.071825742721558 0.6171867251396179 -4.052693367004395 166 166 166 0 7 1727 8 1440
7574 1.209600925445557 0.5664015412330627 -4.138994693756104 159 159 159 0 7 1728 8 1441
7575 0.7855774164199829 0.1475644409656525 -3.917316913604736 170 170 170 0 7 1729 8 1442
7576 0.9591610431671143 0.2198666781187057 -3.941855192184448 178 178 178 0 7 1730 8 1443
7577 1.158772230148315 0.1421966701745987 -4.168821811676025 190 190 190 0 7 1731 8 1444
7578 1.046158313751221 0.05835004150867462 -4.089927196502686 179 179 179 0 7 1732 8 1445 12 224
7579 1.422112941741943 0.3334894776344299 -4.766836643218994 177 177 177 0 7 1733 8 1446
7580 1.005080580711365 0.04250353202223778 -4.050693988800049 187 187 187 0 7 1734 8 1447 12 225
7581 1.351916670799255 1.169915437698364 -4.424212455749512 190 190 190 0 7 1735 8 1448
7582 1.038261532783508 0.8125225901603699 -3.88634204864502 177 177 177 0 7 1736 8 1449
7583 1.372418880462646 0.7334810495376587 -4.130749225616455 189 189 189 0 7 1737 8 1450 12 226
7584 1.315263986587524 0.5499840378761292 -4.188581943511963 178 178 178 0 7 1738 8 1451
7585 1.095230102539062 0.7325525283813477 -4.011403560638428 191 191 191 0 7 1739 8 1452
7586 1.275050282478333 0.7468617558479309 -4.089916706085205 171 171 171 0 7 1740 8 1453
7587 1.155301332473755 0.7207605838775635 -4.038105487823486 182 182 182 0 7 1741 8 1454 12 227
7588 1.205380320549011 0.7510523796081543 -4.078560829162598 183 183 183 0 7 1742 8 1455 12 228
7589 1.075263500213623 0.2874962687492371 -4.014289855957031 173 173 173 0 7 1743 8 1456
7590 1.17326295375824 0.6544617414474487 -4.06557035446167 189 189 189 0 7 1744 8 1457
7591 1.229361772537231 0.5293089151382446 -4.168725967407227 183 183 183 0 7 1745 8 1458 12 229
7592 1.427635312080383 0.2386174499988556 -4.779816150665283 161 161 161 0 7 1746 8 1459 12 230
7593 1.157138347625732 1.068941712379456 -4.002871036529541 167 167 167 0 7 1747 8 1460
7594 1.12664794921875 0.1652733534574509 -4.113948822021484 190 190 190 0 7 1748 8 1461 12 231
7595 0.838443398475647 0.202856034040451 -3.896381378173828 162 162 162 0 7 1749 8 1462
7596 0.8928885459899902 0.1959209889173508 -3.922113180160522 177 177 177 0 7 1750 8 1463
7597 0.7809346914291382 0.4123466014862061 -3.832659721374512 185 185 185 0 7 1751 8 1464
7598 1.38823938369751 0.2704623937606812 -4.744565486907959 157 157 157 0 7 1752 8 1465 12 232
7599 1.174224853515625 0.6796028614044189 -4.06221866607666 188 188 188 0 7 1753 8 1466
7600 1.126033782958984 0.444519966840744 -4.144814491271973 160 160 160 0 7 1754 8 1467
7601 1.349241614341736 0.6096009612083435 -4.19446325302124 171 171 171 0 7 1755 8 1468
7602 0.8644471168518066 0.4190258085727692 -3.972778797149658 186 186 186 0 7 1756 8 1469
7603 0.7231283783912659 -0.116353340446949 -4.010628700256348 170 170 170 0 7 1757 8 1470
7604 1.207791328430176 0.8518094420433044 -4.018919467926025 181 181 181 0 7 1758 8 1471
7605 1.01573920249939 0.6577426195144653 -3.969558954238892 194 194 194 0 7 1759 8 1472
7606 0.9401102066040039 1.145656704902649 -3.994080066680908 191 191 191 0 7 1760 8 1473
7607 0.9393914937973022 0.9011608362197876 -3.871730089187622 186 186 186 0 7 1761 8 1474
7608 1.093578815460205 0.7792463898658752 -3.973391056060791 181 181 181 0 7 1762 8 1475
7609 1.02300226688385 0.2052724212408066 -3.991657018661499 188 188 188 0 7 1763 8 1476
7610 0.9062232971191406 0.5651869773864746 -3.908384799957275 179 179 179 0 7 1764 8 1477 12 233
7611 0.8575112223625183 0.2445285320281982 -3.90366268157959 178 178 178 0 7 1765 8 1478
7612 1.036510348320007 0.03237707912921906 -4.094632148742676 179 179 179 0 7 1766 8 1479
7613 1.100541114807129 0.3204438984394073 -4.207788467407227 190 190 190 0 7 1767 8 1480
7614 1.282328248023987 0.3904195427894592 -4.336980819702148 155 155 155 0 7 1768 8 1481 12 234
7615 1.344693064689636 0.1750136911869049 -4.736993789672852 165 164 165 0 7 1769 8 1482 12 235
7616 0.965370237827301 0.7325780987739563 -3.865302562713623 177 177 177 0 7 1770 8 1483
7617 1.185961842536926 0.538385808467865 -4.150257110595703 78 78 78 0 7 1771 8 1484
7618 1.320849299430847 1.249334216117859 -5.623251914978027 122 122 122 0 8 1485 9 96
7619 1.44606077671051 1.005901575088501 -4.807042598724365 91 91 91 0 8 1486 9 97 12 236
7620 1.390355944633484 0.9100838899612427 -4.558266639709473 114 114 114 0 8 1487 9 98
7621 1.339786529541016 1.23433256149292 -5.634854316711426 108 108 108 0 8 1488 9 99 12 237
7622 0.9787140488624573 1.52210259437561 -6.930758953094482 168 168 168 0 8 1489 9 100 10 11
7623 1.376507878303528 0.8788987398147583 -4.567997455596924 76 76 76 0 8 1490 9 101 12 238
7624 1.477633714675903 0.8109099864959717 -4.828169822692871 104 104 104 0 8 1491 9 102
7625 1.390909552574158 0.7536007165908813 -4.653216361999512 153 153 153 0 8 1492 9 103
7626 1.604586958885193 0.8817546963691711 -5.159592628479004 187 187 187 0 8 1493 9 104
7627 1.632225394248962 0.932607889175415 -5.386486530303955 127 127 127 0 8 1494 9 105 12 239
7628 1.660903811454773 0.9041750431060791 -5.378887176513672 117 117 117 0 8 1495 9 106 10 12 12 240
7629 1.676356792449951 0.8965561389923096 -5.396622657775879 136 136 136 0 8 1496 9 107 12 241
7630 1.660356879234314 0.8883795738220215 -5.381530284881592 164 164 164 0 8 1497 9 108 12 242
7631 1.686208724975586 0.8966307044029236 -5.408783912658691 102 102 102 0 8 1498 9 109 10 13 12 243
7632 1.585896968841553 0.7649802565574646 -5.061112880706787 123 123 123 0 8 1499 9 110
7633 1.58282995223999 0.7370391488075256 -5.057729721069336 121 121 121 0 8 1500 9 111
7634 1.791035890579224 0.7999979853630066 -5.427103519439697 152 152 152 0 8 1501 9 112 12 244
7635 1.447386026382446 0.6218928098678589 -4.786208152770996 41 41 41 0 8 1502 9 113
7636 1.841805338859558 0.8287989497184753 -5.491926193237305 190 190 190 0 8 1503 9 114 10 14
7637 1.697312593460083 0.7611659169197083 -5.332968711853027 119 119 119 0 8 1504 9 115 10 15 12 245
7638 1.762871623039246 0.7670332789421082 -5.423970699310303 67 67 67 0 8 1505 9 116 10 16 12 246
7639 1.797723889350891 0.7702462673187256 -5.446372985839844 130 130 130 0 8 1506 9 117 10 17 12 247
7640 1.822219133377075 0.7811095714569092 -5.478784084320068 117 117 117 0 8 1507 9 118 10 18
7641 1.465011477470398 0.5916192531585693 -4.848273277282715 80 80 80 0 8 1508 9 119
7642 1.847453355789185 0.7828687429428101 -5.500886917114258 165 165 165 0 8 1509 9 120
7643 1.475059509277344 0.5782428383827209 -4.877176761627197 86 86 86 0 8 1510 9 121
7644 1.484534859657288 0.5882076621055603 -4.872657299041748 110 110 110 0 8 1511 9 122
7645 1.599031448364258 0.5891250967979431 -4.912564277648926 132 132 132 0 8 1512 9 123
7646 1.434049248695374 0.5538727641105652 -4.821396350860596 122 122 122 0 8 1513 9 124
7647 1.844957947731018 0.7461128830909729 -5.518663883209229 165 165 165 0 8 1514 9 125 12 248
7648 1.786315083503723 0.7071132659912109 -5.475588321685791 109 109 109 0 8 1515 9 126 10 19 12 249
7649 1.534813642501831 0.8792175650596619 -5.112658977508545 64 64 64 0 8 1516 9 127 12 250
7650 1.50581431388855 0.7023467421531677 -4.834526538848877 113 113 113 0 8 1517 9 128 12 251
7651 1.431356072425842 0.6856880784034729 -4.710786819458008 160 160 160 0 8 1518 9 129
7652 1.646612524986267 0.8120291233062744 -5.176942348480225 95 95 95 0 8 1519 9 130 12 252
7653 1.761772155761719 0.8548636436462402 -5.426326751708984 111 111 111 0 8 1520 9 131 10 20 11 0 12 253
7654 1.56933605670929 0.7352153658866882 -4.99578857421875 82 82 82 0 8 1521 9 132
7655 1.658274173736572 0.7821289896965027 -5.221728801727295 92 92 92 0 8 1522 9 133 12 254
7656 1.44743549823761 0.6372978091239929 -4.776652336120605 102 102 102 0 8 1523 9 134 12 255
7657 1.58743953704834 0.7221437096595764 -5.054264068603516 57 57 57 0 8 1524 9 135 12 256
7658 1.405959248542786 0.5882515907287598 -4.709774494171143 83 83 83 0 8 1525 9 136 12 257
7659 1.689236879348755 0.768211305141449 -5.326905727386475 94 94 94 0 8 1526 9 137 10 21 12 258
7660 1.604982137680054 0.6863078474998474 -5.083970546722412 123 123 123 0 8 1527 9 138
7661 1.834012508392334 0.7622478604316711 -5.494812965393066 111 111 111 0 8 1528 9 139 10 22 12 259
7662 1.822982311248779 0.789084792137146 -5.470650672912598 78 78 78 0 8 1529 9 140 10 23 11 1 12 260
7663 1.880060195922852 0.7594587802886963 -5.566766738891602 108 108 108 0 8 1530 9 141 10 24 12 261
7664 1.517984628677368 0.5468631386756897 -4.876185894012451 94 94 94 0 8 1531 9 142
7665 1.82931911945343 0.7263978719711304 -5.50928783416748 123 123 123 0 8 1532 9 143 10 25 11 2
7666 1.481515049934387 0.5608604550361633 -4.880969047546387 6 6 6 0 8 1533 9 144
7667 1.431116819381714 0.7915119528770447 -4.705645561218262 170 170 170 0 8 1534 9 145
7668 1.472422361373901 0.78240966796875 -4.805495262145996 183 183 183 0 8 1535 9 146
7669 1.739214539527893 0.8095214366912842 -5.410047054290771 125 125 125 0 8 1536 9 147 12 262
7670 1.390822768211365 0.6653823852539062 -4.659680366516113 92 92 92 0 8 1537 9 148
7671 1.453961968421936 0.5222458243370056 -4.85285758972168 106 106 106 0 8 1538 9 149
7672 1.778608202934265 0.7537509202957153 -5.439423084259033 70 70 70 0 8 1539 9 150 10 26 11 3 12 263
7673 1.820194125175476 0.6959046125411987 -5.505838871002197 159 159 159 0 8 1540 9 151 10 27 12 264
7674 1.659123182296753 0.4751836657524109 -4.90615701675415 100 100 100 0 8 1541 9 152
7675 1.663575291633606 0.461531400680542 -4.912719249725342 110 110 110 0 8 1542 9 153
7676 1.681810140609741 0.4530479311943054 -4.918782234191895 116 116 116 0 8 1543 9 154 12 265
7677 1.553832054138184 0.4391383826732635 -4.89422082901001 96 96 96 0 8 1544 9 155
7678 1.627907037734985 0.455545574426651 -4.90215539932251 86 86 86 0 8 1545 9 156
7679 1.672188282012939 0.452997088432312 -4.916471481323242 96 96 96 0 8 1546 9 157
7680 1.616307735443115 0.4432877898216248 -4.899998188018799 80 80 80 0 8 1547 9 158
7681 2.038299560546875 0.7406195402145386 -6.226448059082031 112 112 112 0 8 1548 9 159 10 28 12 266
7682 1.420944452285767 0.3632487058639526 -4.794012069702148 119 119 119 0 8 1549 9 160
7683 1.9173583984375 0.6431849002838135 -5.872725009918213 107 107 107 0 8 1550 9 161
7684 1.429396986961365 0.3618497550487518 -4.800790309906006 138 138 138 0 8 1551 9 162
7685 1.861488938331604 0.5439024567604065 -5.379612445831299 111 111 111 0 8 1552 9 163 10 29 11 4 12 267
7686 1.745161414146423 0.4528153240680695 -4.994984149932861 136 136 136 0 8 1553 9 164 12 268
7687 1.922775387763977 0.6195055842399597 -5.881677627563477 97 97 97 0 8 1554 9 165 12 269
7688 1.938247203826904 0.625616192817688 -5.881438732147217 112 112 112 0 8 1555 9 166 12 270
7689 1.757390856742859 0.4464873671531677 -5.020871639251709 163 163 163 0 8 1556 9 167 11 5 12 271
7690 1.390050292015076 0.3138041496276855 -4.751827716827393 101 101 101 0 8 1557 9 168
7691 1.733602404594421 0.3761811852455139 -4.969587802886963 135 135 135 0 8 1558 9 169
7692 1.552986621856689 0.2943802773952484 -4.809920787811279 124 124 124 0 8 1559 9 170
7693 1.942773342132568 0.4626530408859253 -5.559301376342773 131 131 131 0 8 1560 9 171 11 6
7694 1.411376476287842 0.2317230850458145 -4.763352394104004 84 84 84 0 8 1561 9 172
7695 1.741469621658325 0.3318581879138947 -4.980393886566162 125 125 125 0 8 1562 9 173 12 272
7696 2.045934915542603 0.6153448224067688 -6.663271903991699 112 112 112 0 8 1563 9 174 10 30 11 7 12 273
7697 2.053378343582153 0.591534435749054 -6.683283805847168 125 125 125 0 8 1564 9 175 12 274
7698 1.83529806137085 0.3117842376232147 -5.108835697174072 146 146 146 0 8 1565 9 176
7699 2.02586841583252 0.5608432292938232 -6.659963130950928 125 125 125 0 8 1566 9 177 11 8 12 275
7700 1.815075635910034 0.2872953116893768 -5.10443639755249 118 118 118 0 8 1567 9 178
7701 1.931860446929932 0.3395582139492035 -5.273097038269043 134 134 134 0 8 1568 9 179 12 276
7702 2.107091903686523 0.5260725021362305 -6.774533748626709 84 84 84 0 8 1569 9 180 12 277
7703 1.616142392158508 0.2018889486789703 -4.856088161468506 114 114 114 0 8 1570 9 181 12 278
7704 1.936226606369019 0.3204658925533295 -5.287768840789795 93 93 93 0 8 1571 9 182
7705 1.833295106887817 0.2712098360061646 -5.120876312255859 103 103 103 0 8 1572 9 183
7706 1.369328498840332 0.1141417771577835 -4.796448707580566 94 94 94 0 8 1573 9 184
7707 1.939612746238708 0.3130842745304108 -5.296155452728271 120 120 120 0 8 1574 9 185 10 31 12 279
7708 1.654594659805298 0.4823428690433502 -4.905541896820068 102 102 102 0 8 1575 9 186
7709 1.735464811325073 0.5243756771087646 -5.045575141906738 167 167 167 0 8 1576 9 187
7710 1.359615564346313 0.392649382352829 -4.751126766204834 59 59 59 0 8 1577 9 188 12 280
7711 1.555117964744568 0.4467010796070099 -4.891109466552734 102 102 102 0 8 1578 9 189
7712 1.771821141242981 0.522191047668457 -5.089674949645996 109 109 109 0 8 1579 9 190 12 281
7713 1.908937215805054 0.6534076929092407 -5.865439891815186 102 102 102 0 8 1580 9 191 10 32 12 282
7714 1.938191771507263 0.5510368347167969 -5.526696681976318 123 123 123 0 8 1581 9 192 10 33 12 283
7715 1.612935781478882 0.3871827721595764 -4.875916481018066 89 89 89 0 8 1582 9 193
7716 1.824567079544067 0.4452383518218994 -5.105009078979492 115 115 115 0 8 1583 9 194 12 284
7717 1.680750846862793 0.3846498131752014 -4.913902759552002 111 111 111 0 8 1584 9 195
7718 1.969170808792114 0.5921550393104553 -5.930468082427979 97 97 97 0 8 1585 9 196 10 34 11 9 12 285
7719 1.528355240821838 0.2949197292327881 -4.792477607727051 110 110 110 0 8 1586 9 197
7720 1.71152675151825 0.3644720911979675 -4.93156909942627 139 139 139 0 8 1587 9 198 12 286
7721 1.926026940345764 0.4906143546104431 -5.527509212493896 108 108 108 0 8 1588 9 199 10 35 12 287
7722 1.385543346405029 0.178753450512886 -4.785884380340576 100 100 100 0 8 1589 9 200 12 288
7723 1.727051138877869 0.2939196228981018 -4.966795444488525 169 169 169 0 8 1590 9 201
7724 2.037466287612915 0.5028858780860901 -6.186651706695557 121 121 121 0 8 1591 9 202 12 289
7725 1.578237056732178 0.2069961428642273 -4.847659111022949 62 62 62 0 8 1592 9 203 12 290
7726 1.444528341293335 0.1804701089859009 -4.829913139343262 26 26 26 0 8 1593 9 204
7727 1.465596914291382 0.1568403989076614 -4.864943981170654 7 7 7 0 8 1594 9 205
7728 1.572102546691895 0.1778150498867035 -4.850945949554443 75 75 75 0 8 1595 9 206 12 291
7729 1.910894274711609 0.3001964688301086 -5.265400409698486 81 81 81 0 8 1596 9 207 12 292
7730 2.118104696273804 0.5051288604736328 -6.787247657775879 110 110 110 0 8 1597 9 208 10 36 11 10 12 293
7731 1.444740772247314 0.1474100351333618 -4.858193397521973 22 21 22 0 8 1598 9 209 12 294
7732 1.540623068809509 0.5421061515808105 -4.886268138885498 102 102 102 0 8 1599 9 210 12 295
7733 -14.83727645874023 7.467573642730713 -59.39119338989258 127 127 127 0 8 1600 9 211 10 37
7734 1.367597103118896 0.3821732699871063 -4.767584323883057 76 76 76 0 8 1601 9 212
7735 1.54462742805481 0.401385635137558 -4.889194965362549 41 41 41 0 8 1602 9 213 12 296
7736 1.375311255455017 0.3108383119106293 -4.754677295684814 84 84 84 0 8 1603 9 214 12 297
7737 1.607723355293274 0.3723256886005402 -4.874233722686768 97 97 97 0 8 1604 9 215 12 298
7738 1.591559052467346 0.383951336145401 -4.872560024261475 40 40 40 0 8 1605 9 216 12 299
7739 1.991207242012024 0.619401216506958 -6.105338573455811 180 180 180 0 8 1606 9 217
7740 1.664012312889099 0.3754059970378876 -4.897457599639893 176 176 176 0 8 1607 9 218 12 300
7741 1.411708831787109 0.2992798984050751 -4.75588846206665 47 47 47 0 8 1608 9 219 12 301
7742 1.780312657356262 0.3249459862709045 -5.039360046386719 103 103 103 0 8 1609 9 220 12 302
7743 1.630136370658875 0.2808636724948883 -4.892609596252441 36 36 36 0 8 1610 9 221 12 303
7744 1.433675765991211 0.2029051780700684 -4.804774761199951 19 19 19 0 8 1611 9 222 12 304
7745 1.906264781951904 0.3580183982849121 -5.264291763305664 80 80 80 0 8 1612 9 223 12 305
7746 1.732105851173401 0.2401762753725052 -4.928507328033447 98 98 98 0 8 1613 9 224
7747 1.622472047805786 0.1649249792098999 -4.876266956329346 96 96 96 0 8 1614 9 225
7748 1.726397514343262 0.2052530348300934 -4.92650318145752 85 85 85 0 8 1615 9 226
7749 1.964389443397522 0.3693269193172455 -6.031345367431641 101 101 101 0 8 1616 9 227 10 38 12 306
7750 1.644238352775574 0.138160765171051 -4.91546630859375 80 80 80 0 8 1617 9 228
7751 1.855012536048889 0.2161914855241776 -5.157341957092285 116 116 116 0 8 1618 9 229
7752 1.638821959495544 0.1007060557603836 -4.933679103851318 14 14 14 0 8 1619 9 230
7753 2.081000089645386 0.3494616746902466 -6.735496997833252 151 151 151 0 8 1620 9 231
7754 2.064857959747314 0.345512181520462 -6.72939395904541 78 78 78 0 8 1621 9 232 10 39 12 307
7755 1.858830094337463 0.1976671814918518 -5.912931442260742 99 99 99 0 8 1622 9 233 10 40 12 308
7756 1.765322923660278 0.06851367652416229 -5.005264759063721 93 93 93 0 8 1623 9 234
7757 1.82166850566864 0.09268368780612946 -5.35676908493042 102 102 102 0 8 1624 9 235 12 309
7758 1.555202484130859 -0.05766255408525467 -5.081703186035156 5 5 5 0 8 1625 9 236
7759 1.515510678291321 -0.06023220345377922 -5.030884265899658 46 46 46 0 8 1626 9 237
7760 2.089462995529175 0.1933230459690094 -7.093627452850342 102 101 102 0 8 1627 9 238 10 41 11 11 12 310
7761 1.326603531837463 -0.1517834961414337 -4.995031833648682 65 65 65 0 8 1628 9 239 12 311
7762 2.02683424949646 0.1290890127420425 -6.730286121368408 142 141 142 0 8 1629 9 240 12 312
7763 2.022981643676758 0.1659841686487198 -7.07291841506958 130 130 130 0 8 1630 9 241 10 42
7764 1.719292879104614 -0.03753757476806641 -5.196791172027588 119 119 119 0 8 1631 9 242 11 12 12 313
7765 1.571983098983765 -0.09579073637723923 -5.108565330505371 64 64 64 0 8 1632 9 243 12 314
7766 1.783328056335449 0.01647944003343582 -6.245420455932617 46 46 46 0 8 1633 9 244 10 43 11 13 12 315
7767 2.078162670135498 0.1155279129743576 -7.130244255065918 55 55 55 0 8 1634 9 245 10 44 12 316
7768 1.842924833297729 0.02219297550618649 -6.4331955909729 36 36 36 0 8 1635 9 246 10 45 12 317
7769 1.707488656044006 -0.07922185212373734 -5.361067295074463 180 180 180 0 8 1636 9 247 12 318
7770 2.03483247756958 0.07352395355701447 -6.746508598327637 114 114 114 0 8 1637 9 248 12 319
7771 2.145040273666382 0.1087080165743828 -7.211068153381348 155 155 155 0 8 1638 9 249
7772 1.955130934715271 0.02020127139985561 -6.702266216278076 168 168 168 0 8 1639 9 250
7773 2.185274362564087 0.1234560832381248 -7.319450378417969 153 153 153 0 8 1640 9 251
7774 1.58100163936615 -0.1358482092618942 -5.183474063873291 30 30 30 0 8 1641 9 252 12 320
7775 2.021728992462158 0.02894122339785099 -6.747951984405518 154 154 154 0 8 1642 9 253 10 46
7776 1.879016041755676 -0.028941934928298 -6.538951396942139 99 99 99 0 8 1643 9 254
7777 2.070076465606689 0.0787496492266655 -7.160752773284912 35 35 35 0 8 1644 9 255 10 47 12 321
7778 2.0207200050354 0.007228589151054621 -6.747832298278809 111 111 111 0 8 1645 9 256 10 48 12 322
7779 1.997293710708618 -0.005435343831777573 -6.736022472381592 138 138 138 0 8 1646 9 257 10 49
7780 1.900702834129333 -0.05072829872369766 -6.560764789581299 152 152 152 0 8 1647 9 258 10 50 12 323
7781 1.913888454437256 -0.06004437431693077 -6.575915336608887 157 157 157 0 8 1648 9 259 12 324
7782 1.583867430686951 0.1531233489513397 -4.868426322937012 57 57 57 0 8 1649 9 260 12 325
7783 1.921749234199524 0.2622926533222198 -5.32715892791748 128 128 128 0 8 1650 9 261 12 326
7784 1.839773297309875 0.2064095735549927 -5.143851280212402 104 104 104 0 8 1651 9 262
7785 2.034911155700684 0.3945178091526031 -6.701961994171143 142 142 142 0 8 1652 9 263 10 51 12 327
7786 1.881305932998657 0.2697248756885529 -5.869966983795166 53 53 53 0 8 1653 9 264 10 52 11 14 12 328
7787 2.130178689956665 0.4179013073444366 -6.776272296905518 144 144 144 0 8 1654 9 265 10 53 11 15 12 329
7788 1.802251935005188 0.1800397634506226 -5.02834415435791 108 108 108 0 8 1655 9 266 12 330
7789 1.864101052284241 0.1917804926633835 -5.175446033477783 128 128 128 0 8 1656 9 267 12 331
7790 2.028748273849487 0.3573141396045685 -6.709147453308105 69 69 69 0 8 1657 9 268 10 54 12 332
7791 1.767154335975647 0.1285670250654221 -4.938780784606934 162 162 162 0 8 1658 9 269
7792 1.940012574195862 0.2378791719675064 -6.307453155517578 48 48 48 0 8 1659 9 270 10 55 11 16 12 333
7793 2.097554206848145 0.3048694729804993 -7.019479751586914 88 88 88 0 8 1660 9 271 10 56 11 17 12 334
7794 1.849785327911377 0.1816383898258209 -5.919285774230957 53 53 53 0 8 1661 9 272 10 57 12 335
7795 2.104787588119507 0.2930969595909119 -7.028478622436523 76 76 76 0 8 1662 9 273 10 58 11 18 12 336
7796 1.944892406463623 0.2103729397058487 -6.32481575012207 87 87 87 0 8 1663 9 274 10 59 11 19 12 337
7797 1.945966720581055 0.1858925372362137 -6.35254955291748 112 112 112 0 8 1664 9 275 10 60 11 20 12 338
7798 1.743640422821045 0.03062472864985466 -5.02752685546875 35 35 35 0 8 1665 9 276 12 339
7799 2.114523887634277 0.2682971060276031 -7.052556037902832 79 79 79 0 8 1666 9 277 10 61 12 340
7800 2.126819372177124 0.2565672397613525 -7.070929050445557 76 76 76 0 8 1667 9 278 10 62 11 21 12 341
7801 2.113259553909302 0.2304954826831818 -7.073457717895508 105 105 105 0 8 1668 9 279 10 63 12 342
7802 2.136199474334717 0.2479758262634277 -7.099919319152832 87 87 87 0 8 1669 9 280
7803 2.039274454116821 0.1866981387138367 -7.069218158721924 128 128 128 0 8 1670 9 281 10 64 11 22 12 343
7804 1.405353188514709 -0.1256799250841141 -5.005199432373047 87 87 87 0 8 1671 9 282 12 344
7805 1.798261880874634 0.03454944491386414 -6.21458101272583 78 78 78 0 8 1672 9 283 12 345
7806 1.634240984916687 -0.0521075427532196 -5.108143329620361 8 8 8 0 8 1673 9 284 12 346
7807 1.903146028518677 0.05572199076414108 -6.426361560821533 74 74 74 0 8 1674 9 285 10 65 11 23 12 347
7808 2.050277709960938 0.1337737441062927 -7.107168674468994 65 65 65 0 8 1675 9 286 10 66 11 24 12 348
7809 2.047299385070801 0.1205304488539696 -7.120785713195801 49 49 49 0 8 1676 9 287 10 67 11 25 12 349
7810 1.590304136276245 -0.08934533596038818 -5.115049362182617 66 66 66 0 8 1677 9 288 11 26 12 350
7811 2.008050918579102 0.09030076861381531 -6.717479705810547 142 142 142 0 8 1678 9 289 10 68 11 27 12 351
7812 2.109114646911621 0.1316736340522766 -7.125290870666504 76 76 76 0 8 1679 9 290
7813 1.894424557685852 0.03185511752963066 -6.454580307006836 41 41 41 0 8 1680 9 291 10 69 11 28 12 352
7814 2.038795471191406 0.06057148054242134 -6.749200344085693 117 117 117 0 8 1681 9 292 10 70 12 353
7815 1.770503878593445 -0.05488532036542892 -6.293629169464111 98 98 98 0 8 1682 9 293 10 71 11 29 12 354
7816 1.940573811531067 0.02759238705039024 -6.65473747253418 118 118 118 0 8 1683 9 294 10 72 11 30 12 355
7817 1.875576496124268 0.02210245653986931 -6.448092460632324 32 32 32 0 8 1684 9 295 10 73 12 356
7818 2.133261919021606 0.1265618205070496 -7.149387836456299 147 147 147 0 8 1685 9 296 10 74 11 31 12 357
7819 1.911010026931763 0.02087081968784332 -6.474463939666748 90 90 90 0 8 1686 9 297
7820 1.839570045471191 -0.02055742219090462 -6.50445556640625 82 82 82 0 8 1687 9 298 11 32
7821 1.766279458999634 -0.08230313658714294 -5.601107597351074 40 40 40 0 8 1688 9 299 12 358
7822 1.88672661781311 -0.03932624682784081 -6.547879695892334 109 109 109 0 8 1689 9 300 10 75 11 33 12 359
7823 2.058632612228394 0.04980009794235229 -7.173737525939941 73 73 73 0 8 1690 9 301 10 76 11 34 12 360
7824 1.725234627723694 -0.1172126531600952 -6.314180850982666 85 85 85 0 8 1691 9 302 10 77 11 35 12 361
7825 1.848459362983704 -0.05932069942355156 -6.525084972381592 159 159 159 0 8 1692 9 303 10 78 12 362
7826 2.103004455566406 0.4867180287837982 -6.773643493652344 145 145 145 0 8 1693 9 304 10 79 11 36 12 363
7827 1.993991017341614 0.3703079521656036 -6.068690776824951 73 73 73 0 8 1694 9 305 10 80 11 37 12 364
7828 1.613528251647949 0.1365467458963394 -4.883256435394287 75 75 75 0 8 1695 9 306 12 365
7829 1.60969090461731 0.1664990782737732 -4.871420383453369 57 57 57 0 8 1696 9 307 12 366
7830 1.941920757293701 0.3059318661689758 -6.052407741546631 83 83 83 0 8 1697 9 308 10 81 11 38 12 367
7831 1.863913655281067 0.2475971579551697 -5.882017135620117 52 52 52 0 8 1698 9 309 10 82 11 39 12 368
7832 1.435904860496521 0.000183150899829343 -4.888720035552979 43 43 43 0 8 1699 9 310 12 369
7833 1.724617123603821 0.1202742233872414 -4.919713973999023 65 65 65 0 8 1700 9 311
7834 1.732925772666931 0.1487324237823486 -4.920455932617188 77 76 77 0 8 1701 9 312 12 370
7835 2.098079442977905 0.3196086585521698 -6.997213840484619 66 66 66 0 8 1702 9 313 10 83 11 40 12 371
7836 1.766858100891113 0.06140206009149551 -5.02017068862915 83 83 83 0 8 1703 9 314 12 372
7837 2.134245157241821 0.205995574593544 -7.097492218017578 110 110 110 0 8 1704 9 315 10 84 11 41 12 373
7838 1.314419031143188 -0.1474821269512177 -4.984942436218262 36 36 36 0 8 1705 9 316 12 374
7839 2.015782594680786 0.1231919601559639 -7.094829082489014 72 72 72 0 8 1706 9 317 10 85 11 42 12 375
7840 1.924742937088013 0.04285750910639763 -6.465789318084717 80 80 80 0 8 1707 9 318 10 86 11 43 12 376
7841 1.902321457862854 0.0005944453296251595 -6.529780864715576 108 107 108 0 8 1708 9 319 10 87 12 377
7842 1.785457611083984 -0.06475662440061569 -5.599855899810791 79 79 79 0 8 1709 9 320 10 88 11 44 12 378
7843 1.575105786323547 -0.1121950149536133 -5.11533260345459 41 41 41 0 8 1710 9 321 12 379
7844 1.793212532997131 -0.0806712731719017 -5.61713981628418 77 77 77 0 8 1711 9 322 10 89 11 45 12 380
7845 1.953219652175903 -0.07294949144124985 -6.731390953063965 117 117 117 0 8 1712 9 323
7846 1.965262889862061 -0.07969812303781509 -6.736188411712646 125 125 125 0 8 1713 9 324 10 90 12 381
7847 1.963251709938049 -0.05595584213733673 -6.726417064666748 57 57 57 0 8 1714 9 325 10 91 11 46 12 382
7848 1.862705230712891 -0.02844894304871559 -6.525766372680664 78 78 78 0 8 1715 9 326 10 92 11 47 12 383
7849 1.926997184753418 -0.1206926256418228 -6.605310916900635 136 136 136 0 8 1716 9 327 11 48 12 384
7850 2.091983318328857 -0.08002541214227676 -7.414638996124268 146 146 146 0 8 1717 9 328
7851 1.546985387802124 -0.2752792239189148 -5.387855052947998 67 67 67 0 8 1718 9 329 11 49
7852 2.037072420120239 -0.1460480540990829 -6.902176856994629 148 148 148 0 8 1719 9 330
7853 2.075461864471436 -0.1436388045549393 -7.113198757171631 151 151 151 0 8 1720 9 331
7854 2.075331449508667 -0.2076100260019302 -7.550769329071045 125 125 125 0 8 1721 9 332
7855 2.087236642837524 -0.1763228327035904 -7.545839309692383 157 157 157 0 8 1722 9 333 10 93 11 50
7856 2.11043906211853 -0.3475903570652008 -4.93153190612793 126 126 126 0 8 1723 9 334
7857 1.532490611076355 -0.2494921088218689 -5.360419750213623 6 6 6 0 8 1724 12 385
7858 2.027680397033691 -0.1036834865808487 -6.792596817016602 59 59 59 0 8 1725 9 335 10 94 11 51 12 386
7859 2.613434076309204 -0.4731054902076721 -4.820908069610596 61 61 61 0 8 1726 9 336
7860 2.625533103942871 -0.3341173827648163 -4.840274333953857 62 62 62 0 8 1727 9 337
7861 2.651062250137329 -0.3346593976020813 -4.837801456451416 103 103 103 0 8 1728 9 338
7862 2.6711585521698 -0.408651202917099 -4.809290885925293 34 34 34 0 8 1729 9 339
7863 2.632253646850586 -0.4440281987190247 -4.826252460479736 47 47 47 0 8 1730 9 340
7864 2.698666334152222 -0.3456128835678101 -4.891044139862061 168 168 168 0 8 1731 9 341
7865 2.596671104431152 -0.4187861979007721 -4.816347599029541 3 3 3 0 9 342 12 387
7866 1.431159615516663 1.01272177696228 -4.78872013092041 164 164 164 0 8 1732 9 343
7867 1.393267035484314 0.7874686717987061 -4.638338565826416 67 67 67 0 8 1733 9 344
7868 1.649321675300598 0.9131701588630676 -5.376741409301758 85 85 85 0 8 1734 9 345 12 388
7869 1.414165139198303 0.7266809940338135 -4.698538303375244 166 166 166 0 8 1735 9 346
7870 1.685561299324036 0.8601821660995483 -5.407857894897461 154 154 154 0 8 1736 9 347
7871 1.600654363632202 0.7623952031135559 -5.072285175323486 142 142 142 0 8 1737 9 348 12 389
7872 1.46484112739563 0.5996716022491455 -4.83653736114502 42 42 42 0 8 1738 9 349
7873 1.444046497344971 1.134406089782715 -4.765373706817627 162 162 162 0 8 1739 9 350
7874 1.399224996566772 1.013459324836731 -4.576047897338867 166 166 166 0 8 1740 9 351 12 390
7875 1.595047235488892 0.7141221165657043 -5.058463096618652 43 43 43 0 8 1741 9 352
7876 1.595220327377319 0.6985373497009277 -5.071877956390381 40 40 40 0 8 1742 9 353 11 52 12 391
7877 1.571701049804688 0.5629125833511353 -4.917988777160645 34 34 34 0 8 1743 9 354 12 392
7878 1.559285879135132 0.5738898515701294 -4.887392044067383 25 25 25 0 8 1744 9 355 12 393
7879 1.536145567893982 0.5173549056053162 -4.886948108673096 62 62 62 0 8 1745 9 356 12 394
7880 1.477184057235718 0.5884498953819275 -4.866637706756592 29 29 29 0 8 1746 9 357 12 395
7881 1.452876210212708 0.6141019463539124 -4.794737815856934 24 24 24 0 8 1747 9 358 12 396
7882 1.377169728279114 0.3111902475357056 -4.753949642181396 77 77 77 0 8 1748 9 359
7883 1.662724137306213 0.3064120709896088 -4.914299964904785 68 68 68 0 8 1749 9 360 12 397
7884 1.450042486190796 0.2521294057369232 -4.78878927230835 11 11 11 0 8 1750 9 361 12 398
7885 1.580053925514221 0.2235226929187775 -4.842131614685059 83 83 83 0 8 1751 9 362 12 399
7886 2.093036413192749 0.5723872184753418 -6.738567352294922 56 56 56 0 8 1752 9 363 10 95 11 53 12 400
7887 1.590155482292175 0.1932072639465332 -4.853663444519043 22 22 22 0 8 1753 9 364 12 401
7888 2.045576572418213 0.4399343132972717 -6.707346439361572 72 72 72 0 8 1754 9 365 10 96 11 54 12 402
7889 2.069475173950195 0.4431673586368561 -6.751269340515137 69 69 69 0 8 1755 9 366 10 97 12 403
7890 1.713309526443481 0.1346335858106613 -4.92365026473999 37 37 37 0 8 1756 9 367 12 404
7891 1.647079586982727 0.1226155459880829 -4.922512054443359 26 26 26 0 8 1757 9 368
7892 1.475335955619812 0.02093956619501114 -4.877449035644531 34 34 34 0 8 1758 9 369 12 405
7893 1.872055411338806 0.1772647500038147 -5.231979846954346 93 93 93 0 8 1759 9 370 11 55 12 406
7894 1.851483702659607 0.2227995246648788 -5.888523578643799 34 34 34 0 8 1760 9 371 10 98 12 407
7895 2.125159978866577 0.3013001084327698 -7.037923336029053 69 68 69 0 8 1761 9 372 10 99 11 56 12 408
7896 1.843858242034912 -0.06265522539615631 -5.655551910400391 59 59 59 0 8 1762 9 373 10 100 12 409
7897 1.981492400169373 -0.06947854161262512 -6.740578174591064 34 34 34 0 8 1763 9 374 12 410
7898 2.041681051254272 -0.06435022503137589 -6.767684459686279 53 53 53 0 8 1764 9 375 10 101 11 57 12 411
7899 1.457399368286133 0.4788911938667297 -4.868505954742432 50 50 50 0 8 1765 9 376 12 412
7900 1.928531408309937 0.7448948621749878 -5.839163780212402 170 170 170 0 8 1766 9 377 10 102 12 413
7901 1.649171948432922 0.322190910577774 -4.911370754241943 18 18 18 0 8 1767 9 378 12 414
7902 2.055211305618286 0.3155696392059326 -6.304098606109619 82 82 82 0 8 1768 9 379 12 415
7903 1.510496020317078 0.05504134297370911 -4.922344207763672 4 4 4 0 8 1769 9 380 12 416
7904 1.373070597648621 -0.1480867713689804 -5.013332366943359 38 38 38 0 8 1770 9 381 12 417
7905 2.103241443634033 0.1757294982671738 -7.106986522674561 41 41 41 0 8 1771 9 382 10 103 12 418
7906 1.582921981811523 -0.1427231729030609 -5.181918144226074 9 9 9 0 8 1772 9 383 12 419
7907 1.60094428062439 -0.08192050457000732 -5.125889301300049 24 24 24 0 8 1773 9 384 11 58 12 420
7908 2.018051624298096 -0.1468540132045746 -6.80814266204834 143 143 143 0 8 1774 9 385
7909 1.898790240287781 0.7477614879608154 -5.671875953674316 155 155 155 0 8 1775 9 386 10 104 11 59 12 421
7910 1.551493525505066 0.2293669134378433 -4.818024158477783 18 18 18 0 8 1776 9 387 12 422
7911 1.635973572731018 0.3463928401470184 -4.882115364074707 29 29 29 0 8 1777 9 388 12 423
7912 1.773709416389465 0.3667883276939392 -5.003769874572754 148 148 148 0 8 1778 9 389 12 424
7913 1.433173418045044 0.2109375 -4.814229488372803 6 6 6 0 8 1779 9 390
7914 1.71603798866272 0.1244427114725113 -4.921279907226562 20 20 20 0 8 1780 9 391
7915 1.417603850364685 -0.02907176502048969 -4.893895149230957 11 11 11 0 8 1781 9 392 12 425
7916 2.065777778625488 0.2198830246925354 -7.072353839874268 17 17 17 0 8 1782 9 393 10 105 12 426
7917 2.105344772338867 0.1195442155003548 -7.13630199432373 47 47 47 0 8 1783 9 394 11 60 12 427
7918 2.007393836975098 -0.09266505390405655 -6.775704383850098 23 23 23 0 8 1784 9 395 10 106 11 61 12 428
7919 1.883510828018188 0.2893392741680145 -5.233819007873535 41 41 41 0 8 1785 9 396 12 429
7920 1.999294996261597 0.2713214755058289 -6.291501522064209 30 30 30 0 8 1786 9 397
7921 1.516376137733459 -0.0496770516037941 -5.015573978424072 5 5 5 0 8 1787 9 398 12 430
7922 1.347947120666504 -0.1406259536743164 -5.000401020050049 7 7 7 0 8 1788 9 399
7923 2.609347105026245 -0.4289575815200806 -4.816634654998779 1 1 1 0 8 1789 9 400
7924 1.766007304191589 0.7275112271308899 -5.451606750488281 27 27 27 0 8 1790 9 401 10 107 12 431
7925 1.510511755943298 0.4414013624191284 -4.87871789932251 7 7 7 0 8 1791 9 402 12 432
7926 1.656660079956055 0.2296868562698364 -4.912487506866455 27 27 27 0 8 1792 9 403 12 433
7927 1.481411457061768 0.1181856170296669 -4.884735584259033 2 2 2 0 8 1793 9 404 12 434
7928 1.50555408000946 -0.02428673021495342 -4.975375652313232 4 4 4 0 8 1794 9 405 12 435
7929 1.427893280982971 -0.1173539385199547 -5.04412841796875 5 5 5 0 8 1795 9 406 12 436
7930 1.576977014541626 0.1228922307491302 -4.892087459564209 10 10 10 0 8 1796 9 407
7931 1.430450558662415 -0.07177399098873138 -4.948724746704102 12 12 12 0 8 1797 9 408 12 437
7932 1.227553009986877 1.350769400596619 -5.520243167877197 139 139 139 0 8 1798 9 409
7933 1.253049492835999 1.289422750473022 -5.512187004089355 184 184 184 0 8 1799 9 410
7934 1.403529167175293 0.978200376033783 -4.511274814605713 159 159 159 0 8 1800 9 411 12 438
7935 1.372226357460022 0.8727100491523743 -4.574075698852539 146 146 146 0 8 1801 9 412 12 439
7936 1.428977131843567 1.113885760307312 -4.745540618896484 187 187 187 0 8 1802 9 413
7937 1.301789164543152 1.260987401008606 -5.611709117889404 178 178 178 0 8 1803 9 414 10 108 12 440
7938 1.461465358734131 0.9432895183563232 -4.820080757141113 193 193 193 0 8 1804 9 415
7939 1.254307150840759 1.307155728340149 -5.523461818695068 194 194 194 0 8 1805 9 416
7940 1.420308351516724 1.008023977279663 -4.757659912109375 198 198 198 0 8 1806 9 417
7941 1.456509351730347 1.022436380386353 -4.878837108612061 196 196 196 0 8 1807 9 418 12 441
7942 1.474548816680908 1.072760224342346 -5.378687858581543 174 174 174 0 8 1808 9 419 12 442
7943 1.564812541007996 1.02526068687439 -5.425338745117188 178 178 178 0 8 1809 9 420
7944 1.47904098033905 0.815845251083374 -4.83378791809082 179 178 179 0 8 1810 9 421
7945 1.395184755325317 0.765890896320343 -4.650814056396484 185 185 185 0 8 1811 9 422
7946 1.541343927383423 0.8999015092849731 -5.120426177978516 131 131 131 0 8 1812 9 423
7947 1.49240255355835 0.8017970323562622 -4.859408855438232 180 180 180 0 8 1813 9 424 12 443
7948 1.425615668296814 0.7106495499610901 -4.716094017028809 187 187 187 0 8 1814 9 425
7949 1.458860635757446 0.723487913608551 -4.763402462005615 186 186 186 0 8 1815 9 426 12 444
7950 1.666098117828369 0.9088708162307739 -5.379459381103516 164 164 164 0 8 1816 9 427
7951 1.586780309677124 0.8489564061164856 -5.126396656036377 152 152 152 0 8 1817 9 428 12 445
7952 1.535415410995483 0.7749801278114319 -4.951642990112305 190 190 190 0 8 1818 9 429
7953 1.683028697967529 0.8901989459991455 -5.409741401672363 159 159 159 0 8 1819 9 430 12 446
7954 1.413393974304199 0.6747387051582336 -4.702056884765625 141 141 141 0 8 1820 9 431
7955 1.606772661209106 0.8234639763832092 -5.137091159820557 163 163 163 0 8 1821 9 432 12 447
7956 1.514371752738953 0.6978734135627747 -4.848948955535889 176 176 176 0 8 1822 9 433
7957 1.431423544883728 0.6619133353233337 -4.730587482452393 150 150 150 0 8 1823 9 434
7958 1.575206398963928 0.7389668226242065 -5.001009464263916 163 163 163 0 8 1824 9 435
7959 1.450815320014954 0.6419773101806641 -4.779088973999023 178 178 178 0 8 1825 9 436 12 448
7960 1.70649528503418 0.831872284412384 -5.405642986297607 153 153 153 0 8 1826 9 437
7961 1.701092123985291 0.7665727138519287 -5.336018562316895 181 181 181 0 8 1827 9 438
7962 1.69551944732666 0.7727062106132507 -5.32741641998291 164 164 164 0 8 1828 9 439
7963 1.781210422515869 0.8090891242027283 -5.423598289489746 165 165 165 0 8 1829 9 440 10 109 12 449
7964 1.606292128562927 0.7073547840118408 -5.06993293762207 157 157 157 0 8 1830 9 441 11 62 12 450
7965 1.588477969169617 0.7007094025611877 -5.062455177307129 108 108 108 0 8 1831 9 442 12 451
7966 1.783890962600708 0.7623023986816406 -5.438309192657471 165 165 165 0 8 1832 9 443 10 110 11 63
7967 1.83433735370636 0.7743827700614929 -5.490980625152588 152 152 152 0 8 1833 9 444
7968 1.878675818443298 0.7815517783164978 -5.55161714553833 175 175 175 0 8 1834 9 445 12 452
7969 1.480270981788635 0.570016622543335 -4.881647109985352 107 107 107 0 8 1835 9 446 12 453
7970 1.799457192420959 0.7128021121025085 -5.484415531158447 160 160 160 0 8 1836 9 447
7971 1.464839816093445 1.065870404243469 -5.370424747467041 176 176 176 0 8 1837 9 448
7972 1.443496584892273 0.8443304300308228 -4.74845027923584 178 178 178 0 8 1838 9 449 12 454
7973 1.389724135398865 0.7704735994338989 -4.643622875213623 162 162 162 0 8 1839 9 450 12 455
7974 1.463466167449951 0.8326447606086731 -4.7891526222229 183 183 183 0 8 1840 9 451
7975 1.53741466999054 0.8593879342079163 -4.994376659393311 205 205 205 0 8 1841 9 452 12 456
7976 1.54327404499054 0.8823566436767578 -5.113757133483887 108 108 108 0 8 1842 9 453
7977 1.549150705337524 0.8346182107925415 -4.995821952819824 178 178 178 0 8 1843 9 454 12 457
7978 1.406486392021179 0.7346778512001038 -4.678832054138184 186 186 186 0 8 1844 9 455 12 458
7979 1.538499593734741 0.8287349939346313 -4.985953807830811 187 187 187 0 8 1845 9 456
7980 1.589634418487549 0.8360569477081299 -5.128169536590576 167 167 167 0 8 1846 9 457 12 459
7981 1.541975736618042 0.848929762840271 -5.120199680328369 175 175 175 0 8 1847 9 458
7982 1.471863865852356 0.6568669080734253 -4.798812866210938 173 173 173 0 8 1848 9 459 12 460
7983 1.732184648513794 0.8284160494804382 -5.402409553527832 173 173 173 0 8 1849 9 460
7984 1.794044494628906 0.8199119567871094 -5.428108215332031 177 177 177 0 8 1850 9 461 10 111
7985 1.470391869544983 0.6107680797576904 -4.827556133270264 161 161 161 0 8 1851 9 462
7986 1.409896850585938 0.5910626649856567 -4.721385955810547 152 152 152 0 8 1852 9 463 12 461
7987 1.832332611083984 0.7975465059280396 -5.470022201538086 158 158 158 0 8 1853 9 464 10 112 11 64 12 462
7988 1.47043514251709 0.5789515972137451 -4.866616249084473 164 164 164 0 8 1854 9 465 12 463
7989 1.826155662536621 0.7584576606750488 -5.493901252746582 158 158 158 0 8 1855 9 466 10 113 12 464
7990 1.533462047576904 0.5642313361167908 -4.878875255584717 138 138 138 0 8 1856 9 467 12 465
7991 1.384168148040771 0.7929100394248962 -4.596627712249756 199 199 199 0 8 1857 9 468 12 466
7992 1.65511679649353 0.8179026246070862 -5.178869724273682 183 183 183 0 8 1858 9 469 12 467
7993 1.495418906211853 0.716130793094635 -4.812483787536621 188 188 188 0 8 1859 9 470
7994 1.615112781524658 0.8018361926078796 -5.154447555541992 186 186 186 0 8 1860 9 471 12 468
7995 1.638849973678589 0.8057275414466858 -5.170845031738281 176 176 176 0 8 1861 9 472 11 65 12 469
7996 1.40654993057251 0.6014307141304016 -4.708118438720703 168 168 168 0 8 1862 9 473
7997 1.481614232063293 0.6221141815185547 -4.835347652435303 179 179 179 0 8 1863 9 474 12 470
7998 1.743482112884521 0.7727532982826233 -5.395181655883789 188 188 188 0 8 1864 9 475 10 114 11 66 12 471
7999 1.633574962615967 0.5577057600021362 -4.93834924697876 127 127 127 0 8 1865 9 476
8000 1.624177932739258 0.5615863800048828 -4.933700561523438 131 131 131 0 8 1866 9 477
8001 1.519712924957275 0.5255792737007141 -4.87941837310791 175 175 175 0 8 1867 9 478
8002 1.521294355392456 0.5405092239379883 -4.877841949462891 169 169 169 0 8 1868 9 479 12 472
8003 1.602583765983582 0.5987717509269714 -4.914390087127686 184 184 184 0 8 1869 9 480 12 473
8004 1.656411647796631 0.5535012483596802 -4.958510398864746 180 180 180 0 8 1870 9 481
8005 1.564613580703735 0.5616493821144104 -4.904040336608887 175 175 175 0 8 1871 12 474
8006 1.602891206741333 0.5007899403572083 -4.914562702178955 162 162 162 0 8 1872 9 482
8007 1.647986054420471 0.5397663712501526 -4.951577186584473 163 163 163 0 8 1873 9 483 12 475
8008 1.700016140937805 0.5249473452568054 -4.968502521514893 162 162 162 0 8 1874 9 484
8009 1.548214435577393 0.4592451155185699 -4.874369144439697 162 162 162 0 8 1875 9 485
8010 1.836127161979675 0.6084077954292297 -5.369326114654541 189 189 189 0 8 1876 9 486
8011 1.91651439666748 0.696539044380188 -5.844761848449707 160 160 160 0 8 1877 9 487 12 476
8012 1.750510811805725 0.5180095434188843 -5.060381889343262 193 193 193 0 8 1878 9 488
8013 1.633957743644714 0.4617763757705688 -4.90158748626709 117 117 117 0 8 1879 9 489
8014 1.622637152671814 0.4653855264186859 -4.903347492218018 142 142 142 0 8 1880 9 490
8015 1.607944130897522 0.4537307024002075 -4.896479606628418 135 135 135 0 8 1881 9 491 12 477
8016 2.053307771682739 0.757383406162262 -6.230808258056641 185 185 185 0 8 1882 9 492
8017 1.810551524162292 0.5238679647445679 -5.141844749450684 183 183 183 0 8 1883 9 493 12 478
8018 1.685386896133423 0.4591377079486847 -4.922016143798828 162 162 162 0 8 1884 9 494 12 479
8019 1.714152097702026 0.4615423679351807 -4.948190212249756 182 182 182 0 8 1885 9 495
8020 1.72902500629425 0.4680117070674896 -4.964897155761719 200 200 200 0 8 1886 9 496
8021 1.913667917251587 0.6286752820014954 -5.875795364379883 112 112 112 0 8 1887 9 497 10 115 12 480
8022 1.638915419578552 0.4092104732990265 -4.890388011932373 180 180 180 0 8 1888 9 498
8023 1.874609470367432 0.5472909212112427 -5.42955493927002 196 196 196 0 8 1889 9 499 11 67
8024 1.642869353294373 0.3912186920642853 -4.886680126190186 192 192 192 0 8 1890 9 500
8025 1.837492823600769 0.5184988379478455 -5.256681442260742 200 200 200 0 8 1891 9 501
8026 1.919548869132996 0.6138628125190735 -5.879217147827148 138 138 138 0 8 1892 9 502 10 116 11 68
8027 1.745941162109375 0.4015892744064331 -4.967736721038818 182 182 182 0 8 1893 9 503 12 481
8028 1.720623970031738 0.4086458683013916 -4.948317050933838 194 194 194 0 8 1894 9 504
8029 1.568777799606323 0.3358696103096008 -4.8423171043396 179 179 179 0 8 1895 9 505
8030 1.627313733100891 0.3609693348407745 -4.874964714050293 109 109 109 0 8 1896 9 506
8031 1.649637222290039 0.3355732858181 -4.886917591094971 108 108 108 0 8 1897 9 507
8032 1.760842084884644 0.3865398764610291 -4.990715503692627 164 164 164 0 8 1898 12 482
8033 1.933288216590881 0.4957209229469299 -5.527053833007812 157 157 157 0 8 1899 9 508 12 483
8034 1.42054271697998 0.2597677707672119 -4.761221408843994 193 193 193 0 8 1900 9 509
8035 1.424747467041016 0.266710102558136 -4.768194198608398 131 131 131 0 8 1901 9 510 12 484
8036 1.67215371131897 0.3298992216587067 -4.908412456512451 111 111 111 0 8 1902 9 511
8037 1.79212760925293 0.3729391694068909 -5.011982917785645 189 189 189 0 8 1903 9 512 12 485
8038 1.7573162317276 0.3632331490516663 -4.990854263305664 184 184 184 0 8 1904 9 513
8039 1.642123222351074 0.3228769600391388 -4.896255016326904 145 145 145 0 8 1905 9 514 12 486
8040 1.540416121482849 0.2721122205257416 -4.805104732513428 170 170 170 0 8 1906 9 515
8041 1.78513491153717 0.3335323333740234 -5.032517910003662 158 158 158 0 8 1907 9 516
8042 2.042616605758667 0.6069043278694153 -6.665529727935791 143 143 143 0 8 1908 9 517 10 117 11 69 12 487
8043 1.428969979286194 0.2132536321878433 -4.800121307373047 88 87 88 0 8 1909 9 518
8044 1.999671101570129 0.4987249076366425 -6.070822715759277 173 173 173 0 8 1910 9 519 12 488
8045 2.032922029495239 0.5662488341331482 -6.663823127746582 145 145 145 0 8 1911 9 520 10 118 11 70 12 489
8046 1.831250548362732 0.2829017043113708 -5.113778114318848 159 159 159 0 8 1912 9 521
8047 2.029811859130859 0.5384579300880432 -6.675844192504883 107 107 107 0 8 1913 9 522 10 119 11 71 12 490
8048 2.029854774475098 0.5269230008125305 -6.678792476654053 104 104 104 0 8 1914 9 523
8049 2.04590106010437 0.5063381791114807 -6.696756362915039 168 168 168 0 8 1915 9 524 10 120 11 72
8050 2.081077575683594 0.5220121145248413 -6.762443065643311 158 158 158 0 8 1916 9 525 11 73 12 491
8051 1.689578890800476 0.2138327658176422 -4.914534091949463 145 145 145 0 8 1917 9 526
8052 1.631019830703735 0.2315858155488968 -4.91209077835083 100 100 100 0 8 1918 9 527
8053 1.905940055847168 0.303642213344574 -5.261250495910645 99 99 99 0 8 1919 9 528 12 492
8054 1.945730566978455 0.3700336813926697 -5.857583999633789 161 160 161 0 8 1920 9 529 12 493
8055 1.582672119140625 0.534221887588501 -4.930627822875977 149 149 149 0 8 1921 9 530 12 494
8056 1.847614049911499 0.6908332705497742 -5.539252758026123 177 177 177 0 8 1922 9 531 11 74
8057 1.618374109268188 0.5391460657119751 -4.944121360778809 153 153 153 0 8 1923 9 532 12 495
8058 1.457368493080139 0.5028760433197021 -4.865573883056641 170 170 170 0 8 1924 9 533 12 496
8059 1.652230739593506 0.5597121715545654 -4.942235469818115 155 155 155 0 8 1925 9 534
8060 1.534038186073303 0.5041252374649048 -4.88492488861084 116 116 116 0 8 1926 9 535
8061 2.02449369430542 0.7913691401481628 -6.211390495300293 168 168 168 0 8 1927 9 536
8062 2.035489320755005 0.7848982810974121 -6.210066795349121 160 160 160 0 8 1928 9 537 10 121 12 497
8063 1.344931364059448 0.4084762632846832 -4.730379104614258 150 150 150 0 8 1929 9 538 12 498
8064 1.542978405952454 0.4488414824008942 -4.87726354598999 166 166 166 0 8 1930 9 539
8065 1.671387434005737 0.468563973903656 -4.91363525390625 155 155 155 0 8 1931 9 540
8066 2.023305416107178 0.7683993577957153 -6.211627960205078 150 150 150 0 8 1932 9 541 10 122 11 75 12 499
8067 1.350592255592346 0.3934740722179413 -4.744833469390869 133 133 133 0 8 1933 9 542 12 500
8068 1.341518878936768 0.3563170433044434 -4.760178089141846 153 153 153 0 8 1934 9 543
8069 1.627531290054321 0.406912088394165 -4.887361526489258 168 168 168 0 8 1935 9 544 12 501
8070 1.615925192832947 0.4072652161121368 -4.881048202514648 179 179 179 0 8 1936 9 545
8071 1.895430684089661 0.6390198469161987 -5.864396095275879 155 155 155 0 8 1937 9 546
8072 1.907201766967773 0.6355928778648376 -5.873510360717773 157 157 157 0 8 1938 9 547
8073 1.883810877799988 0.5189635753631592 -5.433832168579102 192 192 192 0 8 1939 9 548
8074 1.742302060127258 0.4447226822376251 -4.995990753173828 195 195 195 0 8 1940 9 549
8075 1.976710796356201 0.5759428739547729 -5.955940246582031 172 172 172 0 8 1941 9 550 12 502
8076 1.588158845901489 0.2954763770103455 -4.8309006690979 176 176 176 0 8 1942 9 551
8077 1.41197144985199 0.2790704667568207 -4.762175559997559 144 144 144 0 8 1943 9 552 12 503
8078 1.907537221908569 0.5131403803825378 -5.512309551239014 137 137 137 0 8 1944 9 553 10 123
