# 3D point list with one line of data per point:
#   POINT3D_ID, X, Y, Z, R, G, B, ERROR, TRACK[] as (IMAGE_ID, POINT2D_IDX)
# Number of points: 384, mean track length: 3.9033059905543128
3437 -3.7838110160723231 1.3628708093211506 2.918471581987705 175 178 174 0.4545719618985018 4 9386 3 7225 2 7159 6 9054 1 4683
3436 -3.2440851264603681 1.2275905435435572 2.8590733270467581 12 17 13 0.93386193674783557 4 9378 3 7221 2 7871 1 7563
3435 -4.0683718144043652 1.3311978698805083 2.9022385232087009 214 217 212 1.5558307813330334 6 9787 3 7215 2 7869 1 8263
3434 -4.7585879014279886 1.4140507744376385 3.0470540330825764 175 177 174 0.35963571703063257 4 9377 3 7214 2 7144
3433 -2.1628218662222651 1.1515110029919289 3.3114920746253613 188 192 191 0.26540841378907654 3 7211 2 7878 1 8243
3432 -2.2026632415879273 1.1614518995138703 3.2947593850169499 40 44 36 0.63743649135181057 6 9470 3 7210 2 7876 1 7546 7 9960
3431 -3.1724603510648746 1.1801472766154693 2.8864998754928841 17 25 26 0.48661707707512347 4 9379 3 7202 2 7872
3430 -4.8267855892109575 1.3761627945386055 3.0775608863577419 218 221 217 0.54418146310857718 4 9376 3 7200 2 7865
3429 -4.9169835890223554 1.2975707271512993 3.1315981348053508 219 224 220 0.25231632807270005 4 8837 3 7198 2 7115
3428 -2.7528342269694801 1.0527445921689456 2.9310182618081289 202 207 203 0.78504464449013245 6 9463 3 7196 2 7858 1 8237 7 10251
3427 -2.8311931856826766 0.98335647648593194 2.9468018594463139 217 222 218 1.2166196789255186 6 9446 3 7195 2 7844 1 8717 7 10245
3426 -3.6058045553461024 1.1417153965605793 3.0429373285291774 9 16 17 1.2873954246117192 4 9361 3 7193 2 7122
3425 -4.1614971960793099 1.1969334432674779 3.1435667396799287 17 28 31 0.74016835424809324 6 9482 3 7190 2 7119 1 7537
3424 -4.1624014768034625 1.196489568111599 3.1472228469713404 17 28 31 0.5291243376896414 4 9359 3 7189 2 7120
3423 -4.2064144330669784 1.1917020528758759 3.1538852726117952 201 204 199 0.65340613778349899 4 9357 6 9461 3 7188 2 7839 1 7536
3422 -4.2697750649753399 1.2232032537096127 3.1178376069545446 15 27 24 1.7774450848236012 4 9368 3 7187 2 7118 1 6325
3421 -4.3609040028620036 1.2032470535888078 3.1802954587124801 9 15 18 0.4156146262038507 4 9355 3 7184 2 7837
3420 -4.5351583852061719 1.2503976821093858 3.1527302180736827 144 146 143 0.22215142867631688 4 9365 3 7183 2 7117
3419 -2.1733558374255511 0.97204462226954902 3.3635448815610958 12 22 14 0.3232283844527945 6 9431 3 7177 2 7850 1 7513 5 10845 7 9915
3418 -2.1733558374255511 0.97204462226954902 3.3635448815610958 12 22 14 0.3232283844527945 6 9432 3 7176 2 7849 1 7512 5 10844 7 9914
3417 -2.3153064112203019 0.94742197290448482 3.3639307032708636 38 41 38 0.13469127235466674 6 9413 3 7175 2 7848 1 7481 5 10842 7 9913
3416 -2.3542802473332052 0.94926309723501279 3.3668627204581103 176 179 174 0.37663902473079475 6 9412 3 7174 2 7847 1 8217 5 10841 7 9912
3415 -2.7599891984353184 0.92305487153357735 3.0443430935472842 50 52 42 0.27974229580069004 6 9427 3 7173 1 8214
3414 -4.1323983488047942 1.1312307682128719 3.1841118035472378 36 37 34 0.19388220495875846 4 9358 3 7170 2 7838 1 8226
3413 -2.5509341292684944 0.85611141040112149 3.4024961542759575 184 189 183 0.78191409281921431 6 9409 3 7166 2 7817 1 8196 5 10823 7 10228 8 8459
3412 -2.9093299266800456 0.83933669735082239 3.1014385470082186 194 197 192 1.125670244816992 4 9348 3 7164 2 7829 5 10831
3411 -2.3281463767267701 0.80200136563064228 3.5023989150248576 31 35 31 0.40392655412726414 6 9402 3 7159 2 7821 5 10825 7 9878
3410 -2.3281463767267701 0.80200136563064228 3.5023989150248576 31 35 31 0.40392655412726414 6 9401 3 7158 2 7820 5 10824 7 9877
3409 -2.5579750780885835 0.76225347261562593 3.4431824810784617 166 171 167 0.82597352875014185 6 9398 3 7157 2 7815 1 7431 5 10816 7 9876
3408 -2.6977586366749056 0.83394535849227514 3.3587788320084728 56 49 44 0.47065450356564043 6 9397 3 7156 2 7814 1 8195 5 10822 7 9873
3407 -2.6768366591514958 0.77476684830053411 3.4027008394903548 8 18 10 0.97030844604241639 6 9395 3 7155 2 7812 1 8193 5 10821 7 10220
3406 -2.9317724491560639 0.79592958840554007 3.1737360330440398 170 176 169 1.2182598644746523 6 9394 3 7153 2 7809 1 8192
3405 -3.097370365507591 0.77988091949108518 3.1380472746118699 169 174 170 0.30839202140435246 4 9341 3 7152 5 10820
3404 -3.9212177387559488 0.91589113309198344 3.3000399036279622 181 184 180 2.2735966667621912 6 9731 3 7148 2 7807
3403 -3.9220108968003333 0.92197753965576801 3.3235311726658026 181 184 180 0.84301388548256784 4 9346 3 7147 2 7806 5 10827 6 8907
3402 -2.2459369211318148 0.66887271743857257 3.6264548855255252 41 46 41 0.55678402029121654 6 9381 3 7142 2 7804 5 10808 7 9842
3401 -3.0511285175127068 0.66787438702877 3.3348629016336253 203 209 202 0.46525705209213464 4 9333 3 7140 2 7792
3400 -3.1726571058801238 0.74593582551128401 3.1957325076773153 22 27 26 0.5205634522281366 4 9678 3 7139 2 7802 5 11016
3399 -3.1405563522144946 0.70797627304089183 3.2324334643352408 205 211 207 1.7425531211953744 4 9332 3 7138 2 7050 1 7425 6 8845 5 10814
3398 -4.0571275374537956 0.78927399949327393 3.4396375032147741 32 39 39 0.57048355124787609 4 9329 3 7136 2 7047
3397 -4.3600198874614815 0.82338971287803808 3.391546962325116 45 43 41 0.29836195133617344 4 9326 3 7134 2 7046
3396 -4.3226739132541203 0.80346830087453658 3.3915970847330819 1 6 18 0.29522875512048213 4 9328 3 7133 2 7799
3395 -5.1040814486411383 0.85875813742407436 3.4352824183334776 30 37 37 0.74104106908477829 4 9324 3 7132 2 7028
3394 -2.2531866525987021 0.62938572643773116 3.6492246474797265 199 205 201 0.67084541035010536 6 9380 3 7128 2 7795 1 8170 5 10807 7 9841
3393 -3.1216985039516776 0.63103463516581704 3.3692169597205068 210 213 210 0.60995584317481544 6 9707 3 7125 2 7791 1 8166 5 10805
3392 -3.1219201925468898 0.630878114605949 3.3705951718608365 210 213 210 0.71941116449458509 4 8755 6 9706 3 7124 2 7790 1 8165 5 10804
3391 -3.2435499648803514 0.62911611681612656 3.3021913210993192 223 226 222 0.68298648792430361 4 9318 6 9385 3 7123 2 7789 1 8164 5 10803
3390 -3.6987190112754593 0.67498802279705128 3.3680922412638377 3 12 13 0.3105797368356078 4 9317 3 7121 2 7787
3389 -2.0736787564507035 0.45171836435562635 3.8124315977197742 10 18 19 0.71263763812334258 6 9357 3 7118 2 7781 1 8162 5 10794
3388 -2.6873478760980523 0.47817101907109616 3.6143125303442676 20 30 29 0.19214969112122118 6 9370 3 7115 2 7780 1 8161 5 10790 7 9823
3387 -3.5579556533750796 0.47282377633007749 3.268812911012283 44 45 38 1.1911877130446156 4 8720 6 9362 3 7106 2 7764 1 8154 5 10437
3386 -4.1012387742611089 0.49740543481824107 3.2522765299714909 16 25 25 1.615925185490078 4 9296 3 7104 2 7762
3385 -4.1411381590236021 0.50875754999404343 3.2511509538100922 46 44 41 0.38268191270168433 4 9306 3 7103 2 7761
3384 -2.843112212765937 0.32904564763753913 3.8215544770276 134 138 130 1.0982291627099878 4 9287 3 7097 2 7755 1 8131 5 10779
3383 -3.3711870147729202 0.31641667682812646 3.6896629353523962 58 53 48 0.89710357345238656 4 9282 6 9332 3 7093 2 7752 1 8130 5 10774 8 7511
3382 -3.8754450002930905 0.37352647846453296 3.2324602652043208 77 83 77 0.29565186641271818 4 9278 3 7092 1 7343
3381 -4.3762719114064552 0.40417000053224728 3.2077128214313859 1 14 9 0.84304565874671855 4 9274 3 7089 2 7748
3380 -2.2550493815111858 0.12259774346937993 3.8612286284189135 192 199 196 1.2114662642456946 6 9300 3 7083 2 7743 1 7289 7 9761
3379 -2.4442231211573544 0.17159361007656615 3.8539826016302263 23 25 24 0.39186341421463344 6 9317 3 7082 2 7740 1 7288 5 10748
3378 -2.6756829995080165 0.17071922654290256 3.9470453690820939 210 217 215 0.51951268022363339 4 9272 3 7080 2 7738 6 9316 5 10746
3377 -3.0317810635616986 0.24667252333271519 3.771905963474727 210 216 213 0.65077555488956429 4 9270 6 8735 3 7076 2 7734 5 10389 7 9791 8 7512
3376 -3.9204820946036723 0.20570860599822235 3.2832271025619604 201 206 202 0.55017176220292241 4 8684 3 7071 2 7711 6 9331 5 10760
3375 -4.1804958194693311 0.25713064792790719 3.2226181428884439 219 226 223 0.41218971459853515 4 9265 3 7068 5 10758
3374 -4.3479504529759252 0.27709271205962999 3.248167471088296 20 33 27 0.7029589081294183 4 9264 3 7067 2 6959 5 10769
3373 -4.3485389323294701 0.2774247091577095 3.2523520789764304 20 33 27 0.67453065526766331 4 9263 3 7066 2 6958 1 7317 5 10768
3372 -4.5717528243060066 0.3040498624030693 3.2358472204647617 26 35 34 0.64723848184738952 4 9262 3 7064 2 6955 5 10767
3371 -2.1160532980144628 0.076273512837557456 3.9549658537006711 184 191 187 1.2916689222293138 6 9301 3 7061 2 7721 1 8092 5 10334 7 9138
3370 -2.1088297323386755 -0.0030985884492087915 4.0692928758256768 198 207 204 1.5539420062498257 6 9646 3 7059 2 8164 1 8616 5 10732 7 10366
3369 -2.3924113150221413 0.12058753082064168 3.9186659827981032 1 18 14 0.54371129580470079 6 8713 2 6951 3 5204 1 5991 5 9712 7 8270
3368 -3.070674969642579 0.062573914941543352 3.789203092511892 28 34 30 0.16717879187987372 4 9249 6 9296 3 7056 2 7719 5 10731 7 9759
3367 -3.070674969642579 0.062573914941543352 3.789203092511892 28 34 30 0.16717879187987372 4 9248 6 9297 3 7055 2 7718 5 10730 7 9760
3366 -2.3010720831136378 -0.032430657761364862 4.0281825716170081 19 25 23 0.29715984218964825 6 9282 3 7049 2 7707 1 8078 5 10720 7 9748
3365 -2.7725806287718151 0.035522529474510928 4.0813121175787916 25 30 30 0.80549645397435765 4 9250 3 7047 2 7703 1 8090
3364 -3.089531530332744 0.010687686340703292 3.8316282327463167 197 203 203 0.9347010082504188 6 9279 3 7046 1 8086 5 10729 7 9757
3363 -3.0678796410766394 -0.051515589852631619 3.8878395280221025 208 216 213 0.8983260265226769 4 9240 3 7045 5 10718
3362 -3.0678796410766389 -0.051515589852631584 3.8878395280221039 208 216 213 0.89832602652261728 4 9239 3 7044 5 10719
3361 -4.3840056360269832 0.12007093634162858 3.3694674434408292 175 185 181 0.83061842050850332 4 9627 3 7041 2 7700 5 10962
3360 -2.6842597095294272 -0.14992514400454099 4.1232586059654572 24 32 32 0.32352199637787521 6 9260 3 7036 2 7688 1 8053 5 10700 7 9732
3359 -3.1988861382305664 -0.12411534999087495 3.9212848251336694 18 26 23 0.92192184564835333 4 9237 3 7032 2 7684 6 9259 1 8073 5 10951
3358 -3.6000595630402037 -0.028830555998414147 3.7682533076024214 200 205 203 0.79302652984749511 4 9617 6 9277 3 7029 2 6886 1 7232 5 10715
3357 -3.6832166363472161 -0.12727991784941625 3.8270016739310915 217 222 218 1.0384943066720753 4 9606 6 9255 3 7027 2 7681 1 8050 5 10938
3356 -3.9258910773809346 -0.041298589673672899 3.881921942807562 52 49 45 0.42396215999365916 4 9231 3 7025 1 7230
3355 -3.917835750789751 -0.10048349969038151 3.8854990045554563 83 75 67 0.62050364402450064 4 9230 3 7024 2 7679 1 7229 5 10712
3354 -2.1782715943418376 -0.3159911840548052 4.5556602330915856 185 189 187 0.63543805753991511 6 9238 3 7012 2 7663 1 8029 7 9715
3353 -3.5972350300600255 -0.25737018348362184 4.338725000948207 193 199 195 0.9594459383734123 4 9209 3 7003 2 6845 6 8603 1 7146 5 10670
3352 -3.8647067490756273 -0.19907442737574904 3.923167292649973 12 22 19 1.3529647450079558 4 9216 3 7001 2 6840 5 10690
3351 -4.0476413542582605 -0.20410838113621452 4.0950890931023709 29 33 33 1.7237740907674237 4 9604 3 7000 5 10689
3350 -2.0054235807131375 -0.42129514875618929 4.7404384407252964 174 181 178 1.3760458328563587 6 9220 3 6995 2 7646 1 8030 5 10661 7 10101
3349 -2.2098725745401393 -0.44543238334407703 4.5793423796723687 26 30 26 0.56279625135036637 6 9217 3 6993 2 7643 1 8018 5 10659 7 9705
3348 -2.9074518502740925 -0.34470696718591176 4.5789701560427778 41 39 39 0.79034444376525081 6 8576 3 6991 2 6819 1 7151 5 10673 7 9050
3347 -2.3750673981018617 -0.54966742871360341 4.6676684600060527 201 210 211 0.73082571926754614 6 8546 3 6976 2 7630 1 7990 5 10155 7 9013
3346 -2.55692239825609 -0.5376903559541516 4.6876308404915514 198 202 203 0.88285086955617653 6 9204 3 6975 2 7629 1 8015 7 9011
3345 -2.55692239825609 -0.5376903559541516 4.6876308404915514 198 202 203 0.88285086955617653 6 9205 3 6974 2 7628 1 8014 7 9012
3343 -3.0594440965193783 -0.54721247338142598 4.8890821202350647 21 31 30 1.5109852796840333 4 9167 6 9202 3 6971 2 7626 1 8012 5 10634
3342 -3.110696658358318 -0.56172825197971499 4.8674714354338651 174 186 184 0.091047378173028812 4 9166 3 6970 5 10633
3341 -3.3767247269660108 -0.46100825379237914 4.660067132564147 33 34 34 0.66308608600574237 4 9190 3 6969 1 7117 5 10655 7 9030
3340 -3.434251582200321 -0.52594513613445204 4.6611821051272715 209 213 214 0.80057928127186706 4 8508 6 9201 3 6968 2 7624 5 10148
3339 -3.8322572981618017 -0.42074829735750685 4.415197357568112 192 197 195 0.79365331388866789 4 9186 3 6965 2 7620 5 10653
3338 -4.1505594936133745 -0.46538431135594222 4.4657163341945481 137 140 135 0.96022594280198625 4 9180 3 6964 5 10627
3337 -4.1508103910242369 -0.46628019311300584 4.4693744373448725 137 140 135 0.81523235278481043 4 9179 3 6963 2 7614 6 9196 5 10626
3336 -4.3165992610057655 -0.45963271994989202 4.4002768606398206 36 35 33 0.55569610307848993 4 9164 6 9193 3 6962 2 7612 1 8003 5 10625
3335 -2.3967579466548452 -0.62430760353254311 4.7344669469225407 106 120 115 0.9524041182021985 6 9176 3 6953 2 7606 5 10640
3334 -2.3967579466548452 -0.62430760353254311 4.7344669469225407 106 120 115 0.9524041182021985 6 9177 3 6952 2 7607 5 10639
3333 -2.5612301793055328 -0.58956663885999538 4.714654016195321 28 28 27 0.3812580059918057 4 9170 3 6948 2 7604 5 10636
3332 -4.0626308054604987 -0.50816292853582656 4.5415817500802733 9 23 23 1.3580591539932907 4 9573 6 9197 3 6943 2 7615 1 8006 5 10903
3331 -4.1973793247757287 -0.58283829969158385 4.5669217263752744 39 43 46 1.4157120996966475 4 9572 3 6941 2 7591
3330 -3.6105510785283452 -0.64622556501283746 4.5813705550936543 28 30 29 0.49726982513554291 4 9153 6 9160 3 6931 2 7592 1 7083 6 8514 5 10112
3329 -4.3095104055009479 -0.71412133751654872 4.879694500864094 6 18 16 0.48474867327699916 4 9150 3 6929 5 10609
3328 -4.4969752235041875 -0.74131482726545905 4.9292685440059714 199 208 207 0.54218816141729764 4 9147 3 6927 5 10593
3327 -2.9295451008151097 -1.0082966555386046 5.5455945712153332 175 185 184 1.2671237947081579 4 9143 6 9137 3 6922 2 7578 1 7055 7 8955
3326 -3.5173128326414109 2.1217042891350575 2.0056059364026915 191 197 193 0.83456070925143377 4 9104 3 6876 2 6469 1 7833
3325 -3.5990610466320088 2.1313112129649205 1.983379782014618 141 143 140 0.94418422402257951 4 8438 3 6875 2 6467 1 6818
3324 -3.6140625603323788 2.1411024233973452 1.9672369211224514 6 15 17 0.21104357150955866 4 9126 3 6874 2 7454
3323 -3.8150115638246485 2.1801628285786085 2.0266460754485736 26 25 30 0.32670150645146501 4 8434 2 4944 1 2861 2 2659
3322 -4.041456227962354 2.2455128353340985 2.0866580954978113 7 14 14 0.16323286456568861 4 9540 3 6872 2 7429
3321 -5.0545407661053359 2.3143537251308302 2.0485210991325111 177 182 180 0.46453069902332778 4 9090 3 6863 2 6429
3320 -2.9456973980025758 2.0504802441090466 2.192242868994227 8 16 13 0.31624842057699454 4 9073 3 6858 2 6471 1 6790
3319 -5.0588585815507248 2.2835384067668776 2.102929191487116 10 23 21 0.60259175696209322 4 9089 3 6847 2 7411
3318 -3.0780227216593663 1.9711892971501348 2.2340902868086054 10 14 13 0.21155149827228389 4 9054 3 6838 2 7396 1 6728
3317 -5.0845227269105697 2.2491308585109415 2.2747842884311158 138 145 142 0.68130751478047469 4 9046 3 6835 2 7380
3316 -5.2130497967005232 2.2796797217339835 2.2735780396794283 160 168 163 0.2628570759163677 4 9044 3 6834 2 6395
3315 -5.2023286385801839 2.2708218098621185 2.3000460743798805 3 14 20 1.32939242581511 4 9489 3 6833 2 6394
3314 -3.1869587423656274 1.9141580960970614 2.2812333763264299 16 27 23 0.2276415248178138 4 9035 3 6821 2 7365 1 6725
3313 -3.2160170284740364 1.9226839972473297 2.2789564508259246 176 181 177 0.24251486851438472 4 9034 3 6820 2 7363 1 7791
3312 -3.3158916907088352 1.9276344886030632 2.2741994862360371 28 36 33 0.22090465430736098 4 9030 3 6819 2 6377 1 6723
3311 -3.3357724254479746 1.9429699648886769 2.2684486478519719 147 148 145 0.11352641260838628 4 9031 3 6817 2 7361 1 6724
3310 -3.7018336362867963 2.0337461760100357 2.2603334636345878 3 16 15 0.1303516679712535 4 9048 3 6816 2 7393 1 7786
3309 -3.7018336362867963 2.0337461760100357 2.2603334636345878 3 16 15 0.1303516679712535 4 9049 3 6815 2 7394 1 7787
3308 -3.6848298277524272 2.0165248027794651 2.2758120070955732 178 183 182 0.39841880769570337 4 9029 3 6814 2 7392 1 7785
3307 -4.591286820552817 2.090368644649923 2.314361884123691 186 188 187 0.7214561991743923 4 9025 3 6808 2 7358
3306 -4.6519305693398998 2.1207225025694165 2.3232938338241169 4 19 19 0.25087095440987112 4 9023 3 6806 2 7355
3305 -4.7780825186142959 2.1472913513766838 2.3623756244312881 192 198 194 1.1321306571839926 4 9014 3 6802 2 7354
3304 -4.7868790422026679 2.1604552336154668 2.2804889266934616 204 207 204 0.15729521451800088 4 9047 3 6801 2 6350
3303 -5.0448744170700905 2.2225743885142348 2.3054501160139491 122 128 125 0.73305862812436351 4 9045 3 6798 2 6347
3302 -5.2498420437261499 2.2458174164784457 2.4217011522601983 176 183 180 0.41331304830754328 4 9006 3 6797 2 6346
3301 -5.3036963542641837 2.260164150944787 2.4307575712751688 8 22 22 0.50764266534754476 4 9005 3 6796 2 4769
3300 -3.0322965862687092 1.8346443767394938 2.2941046083794774 19 24 21 0.29293701296130403 4 9001 3 6787 2 6380 1 6688
3299 -3.2002288403019299 1.8903522281866458 2.2999726659285646 175 176 171 0.32020099933246038 4 9000 3 6785 2 7364 1 7759
3298 -3.229343397906145 1.882003105908945 2.3012181262753355 182 185 181 0.25341019579770757 4 8266 3 6784 2 6378 1 6686
3297 -3.8813759284938589 2.0074326066445742 2.3198392592283943 198 204 200 1.0878116405453386 4 8299 3 6782 2 6366
3296 -4.0621728376164565 1.9411607011199126 2.2977709653361393 154 160 156 0.50642810029397645 4 8997 3 6781 2 7331
3295 -4.6730832930740238 2.1083811869244387 2.3411762939860226 158 163 162 0.26381445611270116 4 9021 3 6777 2 6353
3294 -4.6592344085188486 2.0908566696585082 2.3629630715885543 4 16 17 0.38226777655355137 4 9018 3 6776 2 6319
3293 -4.7224438265248034 2.1001604704114483 2.3729639186241585 6 16 18 0.23737273758165367 4 9016 3 6775 2 6317
3292 -4.7515197179528066 2.1082919368016055 2.3765451930745178 204 208 210 0.25771270805198238 4 9012 3 6773 2 6315
3291 -4.7789901842948153 2.1010144285711823 2.3761632523857568 0 12 12 0.34156044793064338 4 9011 3 6772 2 6314
3290 -2.9423422042665068 1.7804866759569571 2.356812995430758 101 103 95 0.23141790553319691 4 8992 3 6763 2 7336 1 7733
3289 -2.9423422042665068 1.7804866759569571 2.356812995430758 101 103 95 0.23141790553319691 4 8991 3 6762 2 7335 1 7734
3288 -2.9670303858916478 1.7694299633898927 2.3585837199553299 158 160 154 0.16719217926902771 4 8990 3 6761 2 7334
3287 -3.0662935087254763 1.7936105529025583 2.3244829478537885 20 23 19 0.30099259888585106 4 8989 3 6760 2 6329 1 6656
3286 -3.3420778738871002 1.823637098305557 2.3170469092633659 186 191 186 0.49182768939906579 4 8986 3 6759 2 7333 1 7730
3285 -3.1737424431001173 1.7253413258225847 2.3639030215084227 200 203 200 0.6950079819741124 4 8980 3 6747 2 7316 1 7716
3284 -3.2407039189267381 1.7475104590908981 2.342274508703587 11 21 15 0.10372256473266539 4 8988 3 6746 2 6297
3283 -3.2640959385295156 1.7459845581983013 2.3517728244241138 177 179 178 0.31700007725470225 4 8987 3 6745 2 7314 1 6651
3282 -3.2472699224726171 1.7303468092656773 2.3623123548768103 19 24 22 0.50716007289607712 4 8977 3 6744 1 6615
3281 -3.5431693032138205 1.746923643800071 2.3948809365524659 188 188 186 0.25189514745323704 4 8972 3 6743 2 7313 1 7715
3280 -3.6321264326336498 1.7582584025359043 2.3716809992055659 23 24 21 0.38189912481931726 4 8971 3 6742 2 7312
3279 -4.2104400022012873 1.8535236068818601 2.4386683893207284 150 156 153 0.28317067270744872 4 8969 3 6740 2 6289
3278 -4.3588389909340002 1.8541842114778493 2.4460481329517969 185 189 185 0.47786103061224622 4 8968 3 6739 2 7280
3277 -4.448973752588099 1.8664928393117279 2.4494879329167123 162 163 160 0.45075075778244322 4 8966 3 6737 2 7278
3276 -4.448973752588099 1.8664928393117279 2.4494879329167123 162 163 160 0.45075075778244322 4 8965 3 6736 2 7279
3275 -2.9873585274692256 1.6501638508927561 2.4558414335452179 65 64 60 0.39109985811093129 4 8963 3 6723 1 6619
3274 -2.9873585274692256 1.6501638508927561 2.4558414335452179 65 64 60 0.39109985811093129 4 8962 3 6722 1 6618
3273 -3.067832265793148 1.6240221583030618 2.4743068206791774 33 38 32 0.24700776638885408 4 8960 3 6719 2 7294 1 6584
3272 -3.1353041496402332 1.6771938765064904 2.424241887044678 203 208 203 0.39027622918753496 4 8978 3 6718 2 7293
3271 -3.1351266434150942 1.6773949252258455 2.4253525008251668 203 208 203 0.49541240978979351 4 8979 3 6717 2 7292 1 7717
3270 -3.1844731382139813 1.6346579431737964 2.4548445905260485 205 210 206 0.28871551724678307 4 8958 3 6716 2 7291 1 7687
3269 -3.2402044183213703 1.6516718751129944 2.4370461929672937 43 46 41 0.086679254856874707 4 8959 3 6715 2 6269 1 6582
3268 -3.4708103150191305 1.7073707845233603 2.4081528976111959 7 9 8 1.0281181387410581 4 9448 3 6712 2 7290
3267 -3.6540891830928053 1.686736905444556 2.450787306882368 12 23 21 0.82987322187587553 4 8954 3 6710 2 7288 1 7684
3266 -3.8079252930297671 1.7225155069542974 2.4111326137596216 22 29 27 0.35123420610087708 4 8953 3 6707 2 7287 1 6614
3265 -3.8166490440709562 1.6948467770091535 2.434708222187016 147 152 148 1.3304859616704918 4 8952 3 6705 2 7286 1 6613
3264 -4.0230305598504446 1.7290580967952991 2.482932339462566 11 19 14 0.20993469345060242 4 8947 3 6704 1 6573
3263 -4.0817480754882585 1.7904544834555138 2.4500539687203635 9 16 14 0.4533172836220471 4 8970 3 6703 1 6611
3262 -4.1807436709546915 1.7804709592380694 2.4533815150669258 180 183 180 0.41397571628476187 4 8945 3 6702 2 7284
3261 -4.1807436709546915 1.7804709592380694 2.4533815150669258 180 183 180 0.41397571628476187 4 8944 3 6701 2 7283
3260 -4.2097920654305518 1.7698043450839724 2.4583976337605682 14 21 21 0.61458218010344445 4 8943 3 6699 2 6252
3259 -4.2776584276785519 1.7906279316775613 2.4603951572421452 53 55 54 0.33807155183493198 4 8942 3 6697 2 7282
3258 -4.4422923197128119 1.83340391609575 2.4610977048613893 131 135 129 0.3230057951065764 4 8964 3 6695 2 6248
3257 -4.4444036789724448 1.7988281467670417 2.4657799032740413 8 14 14 0.59352752524146857 4 8939 3 6694 2 7277
3256 -2.8362165257942999 1.612063561945567 2.6828870740342294 36 37 32 0.29370523158974232 4 8936 3 6686 2 6236 1 6587
3255 -2.858899437411841 1.6242258069756847 2.662703850016169 183 188 182 0.31859269189328476 4 8937 3 6685 2 7272 1 7688
3254 -2.9543791695684591 1.6055852345095349 2.6623053306254647 196 201 197 0.42529835832598906 4 8935 3 6684 2 7270
3253 -3.1552266736419354 1.5973880862562302 2.4798056267378374 186 192 188 0.58138147526317352 4 8932 3 6682 2 7268
3252 -3.1848183933224576 1.6004607755514215 2.47723267245058 69 72 66 0.57447613867830027 4 8930 3 6681 2 7266
3251 -3.1848183933224576 1.6004607755514215 2.47723267245058 69 72 66 0.57447613867830027 4 8931 3 6680 2 7267
3250 -3.4508659817356273 1.6131946900786995 2.4471931691265141 97 103 99 0.17929824664660321 4 8929 3 6678 1 6580
3249 -3.9974444187491791 1.7192982655934372 2.4945693643063809 196 199 195 1.2825020826275619 4 8949 3 6675 2 7259 1 7682
3248 -4.0670980585950396 1.7236906432206973 2.4919735003103116 15 22 20 0.42744336142188039 4 8946 3 6674 2 6218 1 6569
3247 -4.0484638206714605 1.6799625573459527 2.5220106239338156 15 22 18 0.50277342874915187 4 8926 3 6673 2 6216 1 6568
3246 -4.354385246795724 1.7443144917129461 2.474687766158012 26 34 31 0.48418216743484699 4 8940 3 6671 2 7258
3245 -2.8669089988696874 1.5912734689925989 2.7053653600813923 179 180 177 0.30765034115567752 4 8190 3 6666 2 7271 1 6539
3244 -3.1426846363486654 1.529936549527358 2.6628408053790946 7 22 17 0.36212610786587895 4 8925 3 6665 2 7251 1 7665
3243 -3.8335508113785961 1.6163351095326886 2.540994105810793 97 104 97 0.2893624803840818 4 8928 3 6664 2 6182 1 6522
3242 -3.9264027194909952 1.5760420384345364 2.6141961452079676 16 23 21 0.15892922198373632 4 8918 3 6661 2 7247 1 6521
3241 -2.1429159688720172 1.4968434014127778 3.0748674513357517 211 225 226 1.4414138244054104 6 9078 3 6659 1 7644 7 10015
3240 -2.1429159688720172 1.4968434014127778 3.0748674513357517 211 225 226 1.4414138244054104 6 9077 3 6658 1 7643 7 10016
3239 -2.9589281675772434 1.4708646427655154 2.7205676862412465 30 27 26 0.17977684848221653 4 8913 3 6651 2 7252 1 7641
3238 -3.6364667517110183 1.482969628425578 2.6775547846834509 180 188 180 0.31774967442285895 4 8910 3 6647 2 7214 1 7637
3237 -3.6891500032673701 1.4955164938518202 2.6707429265305098 166 169 163 1.2435874825295055 4 8909 3 6646 2 7213 1 7636
3236 -3.9631302397558876 1.5288253662056865 2.6962385981727195 163 167 161 0.12040840633626493 4 8907 3 6645 2 7212 1 6482
3235 -4.0785152303805194 1.5727231971157196 2.6397442522029069 184 190 184 0.75349530010176047 4 9423 3 6644 2 7210
3234 -4.1417234416422275 1.5820773952322325 2.6242632216361681 207 209 203 0.23821786223000552 4 8917 3 6643 2 7209
3233 -4.2225893653654456 1.5605009970171519 2.6204016005985236 210 215 211 0.25242370732331665 4 8113 3 6642 2 6146
3232 -4.3083705255269757 1.5872314418866982 2.5810221649000518 207 210 202 0.53100220186060498 4 8132 3 6641 2 6145
3231 -4.3584497210936837 1.5497614372558624 2.6051044588517707 210 215 211 0.21006604963492406 4 8904 3 6640 2 7206
3230 -4.426477500148092 1.572646010454809 2.627666134324993 24 27 24 0.41077993483978581 4 8903 3 6639 2 7207
3229 -2.2849158126995115 1.3551831667131224 2.8711572801642351 198 205 205 1.2372127295753825 6 9522 3 6634 2 7921 1 8287
3228 -2.9554587463340201 1.3925362230599672 2.7833911229004018 19 32 26 0.23248775405404326 4 8897 3 6632 2 7220 1 6440 6 9075
3227 -3.0355212279357247 1.3352022871479434 2.7673793977980079 198 199 195 1.1180133039596052 4 8105 3 6631 2 7906
3226 -4.2340441729798437 1.4784028023814253 2.7395560344358372 202 208 201 0.75123935371858674 4 8890 3 6626 2 7184
3225 -5.0717475253862396 1.5878590930326513 2.9270059968692168 154 157 156 0.12948114344457157 4 8887 3 6624 2 7179
3224 -5.0717475253862396 1.5878590930326513 2.9270059968692168 154 157 156 0.12948114344457157 4 8886 3 6623 2 7178
3223 -2.5329456412469145 1.2098978740870228 2.8017179830318533 35 38 33 0.35818988668738905 6 9028 3 6620 2 6102 1 6402 7 9542
3222 -2.6477205837276587 1.2346560207729822 2.7841191142107649 29 28 27 0.7454647100511439 6 9023 3 6619 2 7171 1 6398 7 9540
3221 -3.1531203455438783 1.2584902779351643 2.8009717621305912 211 213 211 0.21954421830782306 4 8884 6 9022 3 6616 2 7164
3220 -3.4715497952963106 1.3660160755543953 2.8277844116870776 177 182 178 0.94304100539376434 4 8881 3 6615 2 6129 1 4686
3219 -3.5236657850656496 1.3352931748452923 2.8701555438096649 11 15 20 1.056527853311658 4 8880 6 9055 3 6614 2 7160 1 6394
3218 -3.7075370924788271 1.3819194317301127 2.8625567059304724 162 167 161 0.67972233639883251 4 8879 6 8359 3 6611 2 6085 1 4684
3217 -3.7383677065703558 1.4033103387152543 2.8327646072145498 166 169 165 0.68021388557753215 4 8894 6 9538 3 6610 2 7189
3216 -3.7555835582107613 1.3762636286907517 2.9135774953748386 29 27 25 0.44854700567130035 4 8877 6 9513 3 6608
3215 -3.9840637808111246 1.4083431225665617 2.8554312876266232 173 176 171 0.62028208335870161 4 8875 3 6607 2 7157 1 7610
3214 -4.0295232156422385 1.429083205047426 2.8393208436705799 178 181 175 0.33407988990338894 4 8891 3 6606 2 7187 1 7609
3213 -4.0107718196309801 1.3656989021557748 2.8922786657704633 215 218 213 0.73428957657286076 4 8874 3 6605 2 7156 6 9508 1 7581
3212 -4.3542345675811092 1.4544234097704631 2.7740088633083251 21 31 24 0.099214939134562474 4 8888 3 6604 2 6120
3211 -4.7229037164956109 1.4800343232297271 2.9699346791758701 186 191 185 0.85543670536374339 4 8071 3 6603 2 6073
3210 -2.5947603881952346 1.1355536248152984 2.8705987461079929 34 37 32 0.58482972933695221 6 9006 3 6598 2 7150 1 6367 7 9506
3209 -2.713734069335056 1.1875326504232253 2.8443284842982473 192 191 191 0.74084260532392199 6 9004 3 6597 2 7169
3208 -2.713734069335056 1.1875326504232253 2.8443284842982473 192 191 191 0.74084260532392199 6 9005 3 6596 2 7168
3207 -2.704078845993191 1.1646625675962918 2.8497335334133655 27 29 27 0.29475295456490436 6 9003 3 6595 2 6055 1 6365 7 9505
3206 -3.1397138050496802 1.2345576980482775 2.8260757952250111 9 17 12 0.29303840608941611 4 8865 3 6591 2 7163
3205 -3.3032705976442989 1.249390139759408 2.8662158587212976 171 174 173 0.32843272875265567 4 8863 3 6589 2 6087
3204 -3.475727347284812 1.289535748028861 2.8946257947541509 46 41 38 0.45977528518286004 4 8860 3 6586 2 7161
3203 -3.4758475405169311 1.2886045187319135 2.8921268611276316 46 41 38 0.49429369542665796 4 8861 3 6585 2 7162 1 6395
3202 -4.0805017247874433 1.3049767991877181 2.9791050698591701 218 220 215 2.0348300931966561 4 8060 6 9019 3 6582 2 6045 1 6356
3201 -4.1669613913070167 1.3630569490406137 2.8975965213623418 205 206 204 0.53721108037747467 4 8873 3 6580 2 7154 1 6388
3200 -4.2136997670052114 1.3213201532822823 2.9674463342542525 190 195 191 1.3302536167753685 4 8057 3 6579 2 7146 1 7562
3199 -4.6841010121164732 1.4477478554982786 2.9953493169064487 108 110 105 0.39694175087690908 4 8871 3 6577 2 6072
3198 -4.7166026367104665 1.4454232879622306 3.0015587352896507 7 24 18 0.33991450176031218 4 8870 3 6576 2 6071
3197 -4.7166026367104665 1.4454232879622306 3.0015587352896507 7 24 18 0.33991450176031218 4 8869 3 6575 2 6070
3196 -5.005882138698996 1.4557526930587941 2.9509660043791377 21 35 29 0.047942257703359296 4 8868 3 6574 2 6037
3195 -5.0484457726731611 1.4056197184492436 2.9591645252525485 23 30 28 1.0103409282306495 4 6805 3 6573 2 6036
3194 -5.0577136885592227 1.3801306929329771 2.9874893516557002 188 188 186 0.20765095752800913 4 8041 3 6572 2 6035
3193 -2.6836378025202179 1.085861093824376 2.9257629554587581 212 214 208 0.41739419817789852 6 9465 3 6565 2 7129 1 7542 7 9956
3192 -2.9535742602710808 1.0909141476126374 2.9129894926880007 30 27 30 0.46779564026206544 6 8985 3 6563 2 7128 1 7541 7 9954
3191 -3.5380357180567881 1.1684467191160126 3.0111636304340315 20 24 23 1.8508815699166967 4 8033 3 6560 2 4236 2 7123 1 4558
3190 -2.0723766145629603 1.1141339710925258 3.3595209756801632 46 54 45 0.1861046990271181 6 8968 3 6552 2 7134 1 6339 7 9459
3189 -2.0723766145629603 1.1141339710925258 3.3595209756801632 46 54 45 0.1861046990271181 6 8967 3 6551 2 7133 1 6338 7 9458
3188 -2.0724317531269203 1.0305281403780242 3.4163519458590796 201 209 205 0.51144976468820147 6 9433 3 6550 2 7851 1 8229 5 10520 7 9917
3187 -2.1726462082421687 1.1141024307983756 3.3182558009215004 53 60 47 0.31908910482096076 6 8965 3 6547 2 7131 1 7544 7 9456
3186 -2.1726462082421687 1.1141024307983756 3.3182558009215004 53 60 47 0.31908910482096076 6 8966 3 6546 2 7132 1 7545 7 9457
3185 -2.7224699353205666 1.0518758186681427 2.9424225815471106 40 44 36 0.78392919764915359 6 8986 3 6542 2 6023 1 6334 7 8677
3184 -3.2891443625607217 1.0740698093984977 3.0067225677693443 37 33 32 1.3806818291611336 4 8828 3 6540 2 7124 1 4559
3183 -4.459397640622818 1.2052990293852233 3.1902702128199554 149 154 148 0.3165246535890382 4 8825 3 6538 2 7096
3182 -4.4593158794620846 1.2053266815861656 3.1899794595706452 149 154 148 0.31268443568252646 4 9354 3 6537 2 7095
3181 -4.7855749273911607 1.2832055532686053 3.2118967827632279 15 24 20 0.28828269190067285 4 8838 3 6536 2 7116
3180 -4.8315992759160959 1.2440612560284725 3.2185164146786147 10 26 24 0.45557041357625749 4 8824 3 6535 2 7094
3179 -4.8598896582135813 1.2454989082134909 3.2048300191160553 219 224 220 0.36752928533929613 4 8823 3 6534 2 7093
3178 -5.1113387814794322 1.2408183613566295 3.0924318101077866 225 230 228 0.42765635383702105 4 8821 3 6532 2 7092
3177 -5.1113387814794322 1.2408183613566295 3.0924318101077866 225 230 228 0.42765635383702105 4 8820 3 6531 2 7091
3176 -2.1723863922019158 1.0025418123887153 3.3475294874220816 172 178 174 0.42715035904638055 6 8947 3 6529 1 7514 7 9430
3175 -2.2290560936834911 0.94021720512139573 3.3804579988970742 130 136 129 0.7940067147266886 6 8918 3 6527 2 7107 1 7483 5 10504 7 9390 8 6516
3174 -2.3354041513448354 0.97702923747493464 3.3419535125400954 133 136 131 0.38132622624333806 6 8946 3 6526 2 7106 1 6294 5 10517 7 8605
3173 -2.2787525535705511 0.94195625045214337 3.3649539871506793 160 165 162 0.61974921685348361 6 9414 3 6525 1 7482 5 10503 7 9895
3172 -2.7234257288803234 0.96851831508005759 3.0457405061852221 54 55 45 0.2039210406801675 6 8944 3 6524 2 6000 1 6293 5 10532 7 9451
3171 -2.7233408519624711 0.94082737401301442 3.0628565749043388 192 197 191 1.0578887700762423 6 8943 3 6523 2 7105 1 7509 5 10516 7 9428
3170 -2.7953971760320053 0.94922200877159713 3.0126103694194852 205 207 204 0.4837333721788159 6 8942 3 6522 2 7103 5 10531 7 9426
3169 -2.8437609146132754 0.95827786210664112 2.9845824745558529 220 226 222 0.88779255600385598 4 7994 3 6521 5 10530
3168 -4.0178407423507938 1.1119834484781261 3.1997647364687829 192 194 189 0.18990473932514698 4 8815 3 6517 2 7097
3167 -4.5446198387950005 1.1224582089070392 3.2535546570063669 219 221 219 0.27687964064054499 4 8812 3 6512 2 5972
3166 -4.6216206409872784 1.1200180678572655 3.2689854083905181 36 26 29 1.7851435629502026 4 8811 3 6511 2 5971
3165 -2.0475054850170977 0.88855887110092868 3.4354687618772193 168 178 175 0.64465251125407941 6 8919 3 6508 2 7086 1 7485 5 10505 7 9392
3164 -2.2119881373817574 0.84906352341823821 3.4639979353256836 183 190 187 0.16399695010375578 6 8892 3 6503 5 9935
3163 -2.4373344583403402 0.93593564839637733 3.382873879142628 214 215 215 0.85579503025759696 6 8917 3 6501 5 9956 7 9389
3162 -2.4521006866731931 0.88793682375154781 3.4072291443233347 35 40 39 0.24583623299164711 6 8916 3 6500 2 7084 1 6258 7 9383
3161 -2.4522278656351397 0.88812473588403451 3.4084870183008853 35 40 39 0.27605867620225577 6 8915 3 6499 2 7085 1 6259 5 10502 7 9384
3160 -2.5646929845909994 0.90726284982895755 3.385951020948299 175 178 175 0.57864651054804794 6 8911 3 6497 2 7080 1 7480 5 10501
3159 -2.5919357627725015 0.85010616947985229 3.3856657641490484 64 65 55 0.4008099806112595 6 8888 3 6496 2 7064 1 6221 5 10484 7 9381
3158 -2.7669294778605273 0.88875708360481698 3.0549327905711405 220 225 221 0.96203544515699468 6 8941 3 6495 2 7079 1 7478 5 10515 7 9910
3157 -2.8965437231081341 0.86157802111445869 3.0516071573278158 192 197 193 1.4519754747830866 4 8806 3 6493 2 7078 6 8179 1 6252 5 9954 7 9378
3156 -3.0640473305779978 0.8859031769662703 3.0697741749835781 10 21 17 0.74288266772612865 4 8803 3 6490 2 5977 1 6249
3155 -4.1515580734854858 1.0059127963383423 3.2628479625684146 35 37 36 0.56445872463880586 4 8798 3 6486 2 4114
3154 -2.2044120858032143 0.82255900022067785 3.4903342868397305 192 199 199 0.30335231163616372 6 8891 3 6482 2 7067 1 7455 5 10486 7 9351
3153 -2.2954184819248389 0.78306307043528023 3.504516982106916 156 160 157 0.25991748390247776 6 8890 3 6480 2 7066 1 7453 5 10485 7 9350
3152 -2.5008346558360572 0.77791115620307894 3.4635662782908248 210 213 210 2.0484021507709298 6 9400 3 6479 2 7818 5 10483
3151 -3.4468126202473348 0.78447401925121285 3.226217538296916 21 26 24 0.49702609091163968 4 8792 3 6477 2 7049
3150 -4.1063453578077711 0.91221696797320673 3.2526142683546349 37 39 38 1.1365080842731086 6 8904 3 6475 2 7058 1 6211 4 7949 5 10494
3149 -2.3313007993542589 0.73063280371371309 3.5433504363042956 23 26 23 0.6346607823947984 6 8857 3 6468 2 7055 1 7433 7 9318
3148 -2.4141953068445239 0.68577187005151463 3.5663160553991076 10 23 18 1.380171797367008 6 8856 3 6467 2 5921 1 6188 5 10462 7 8488
3147 -2.736010313781454 0.65554736020651938 3.4090279117518487 200 200 200 0.23343735809188307 6 8855 3 6465 2 7042 1 7430 5 10460 7 9317
3146 -2.736010313781454 0.65554736020651938 3.4090279117518487 200 200 200 0.23343735809188307 6 8854 3 6464 2 7041 1 7429 5 10459 7 9316
3145 -2.7672917088656686 0.653701697045175 3.4189853554322127 40 41 36 0.72350043823016108 4 8761 6 8852 3 6463 2 7039 1 6139 5 10457 7 8480
3144 -2.7672917088656686 0.653701697045175 3.4189853554322127 40 41 36 0.72350043823016108 4 8760 6 8853 3 6462 2 7040 1 6140 5 10458 7 8481
3143 -3.3245982969424959 0.6738850200933646 3.2890487721564567 14 19 17 0.6351693393147132 4 8769 3 6457 2 7034 1 7422 5 10812
3142 -4.2788014510271362 0.81533261705425764 3.3995853533883622 48 40 38 0.41204001042024724 4 8766 3 6452 2 5895
3141 -2.1372707045775998 0.56078363679977927 3.7240179832346194 207 214 214 0.85219061209544367 6 9371 3 6449 2 7044 5 10448
3140 -2.3655983686205975 0.63705029205780572 3.5973226158487179 33 41 33 0.50121606960922915 6 8830 3 6448 2 7043 5 10461
3139 -2.7978889589189864 0.59627176600057263 3.4817108271353043 187 192 188 0.62551868623920603 4 8757 3 6447 5 10456
3138 -2.8446088874351094 0.61118010004172729 3.4601035828466347 202 204 201 0.94770221402491683 6 8829 3 6446 2 7038 1 7401 7 9289
3137 -3.2072323483331875 0.58858693097805637 3.3749107881579978 209 212 207 1.9578700786087793 4 8754 3 6445 2 7778 5 10998
3136 -3.2564003994724748 0.59838153677507544 3.3671494403823821 46 50 40 0.34314689928372832 6 8827 3 6444 2 7035 1 6132 5 10452
3135 -3.9906824626215895 0.63877791812335094 3.3696993870408392 40 42 37 0.76066088623504691 4 8747 3 6438 2 5835 1 4287
3134 -5.1347185540513731 0.74834646236163083 3.5112010096194748 0 11 12 0.76869863943729311 4 8744 3 6435 2 3962
3133 -2.2728845799410786 0.5192634010006989 3.7625786429377088 194 198 194 0.37276887333726028 6 8814 3 6432 2 7025 1 7387 5 10447 7 9255
3132 -2.9133776603086856 0.53738611974176165 3.5447350167487386 140 143 140 0.32215368786634474 4 8739 6 8809 3 6424 2 7020 1 7384 5 10442 7 9249
3131 -2.9718879471062816 0.47845337025085211 3.5675866818220578 189 192 186 0.45530100805877344 6 8808 3 6423 2 7009 1 7382 7 9248
3130 -2.9723521707911611 0.47851101354425163 3.5699881543183181 189 192 186 0.58427732913904096 6 8807 3 6422 2 7008 1 7381 5 10430 7 9247
3129 -3.0709372682561553 0.55214221949480402 3.4667288318682399 222 227 223 1.1906728241239732 4 8738 3 6421 2 7018 6 8828 1 7380 5 10441
3128 -3.2636411280370283 0.53317033860115681 3.4460950226890708 180 183 177 0.43581978640336916 4 8737 6 8805 3 6419 2 7017 5 10439
3127 -3.242460195749068 0.48797991318596545 3.5119402080850439 203 206 205 1.964775230866687 4 8722 6 8804 3 6418
3126 -3.8479040708600118 0.5598849230895061 3.3241119311399445 22 27 24 0.94925934549479585 4 8736 3 6416 2 7015
3125 -4.720293388893138 0.63692435374191803 3.3166145105066911 9 12 20 0.29327154694743296 4 8735 3 6415 2 5831
3124 -3.189296864100565 0.47598961712106685 3.5600890606818751 204 207 201 0.37182006146017493 4 8724 3 6407 5 10428
3123 -3.3926385933690093 0.44726023780896429 3.4428510794380172 37 39 31 0.749014384192355 4 7864 6 9365 3 6406 2 7006 1 7350 5 10785
3122 -3.612644777579713 0.45553429671763668 3.2132089241023163 34 35 33 0.58083370697444203 4 8719 6 8800 3 6404 2 7004 5 9829
3121 -2.0879958267440615 0.2554670241546429 3.7882701583906049 27 34 32 0.39571337917613009 6 8740 3 6398 2 6998 1 7331 5 10393 7 9197
3120 -2.7907299191508548 0.31878865872945378 3.8424562541439311 180 183 177 1.1722660086528478 4 7849 6 8774 3 6395 2 6993 5 10413
3119 -3.2771326555916618 0.38506642939048896 3.6438777031421741 171 172 169 1.1509981629967638 4 7843 6 9351 3 6394 2 6991 1 7352 5 10412
3118 -3.5295714014297244 0.31925486486290855 3.4431719728481114 190 193 187 0.86972672592935085 4 8708 6 8763 3 6392 2 6987 1 7322 5 10410
3117 -3.7964263092612378 0.37768231719703393 3.2291824794633626 144 149 145 0.3057187125338679 4 8707 3 6390 2 6984
3116 -4.0561834102616467 0.35460106280094456 3.2269424197893697 173 176 175 0.23618183660539524 4 8702 3 6385 2 6981 1 7342 8 6177
3115 -2.1444584238830116 0.15434163862294803 3.828330727816553 24 27 23 0.56238372228012212 6 8739 3 6376 2 6974 1 7290 5 10363 7 9167
3114 -2.4129977271175784 0.14849270808708209 3.8678453729578326 162 172 168 0.40509192536591104 6 8712 3 6373 2 6971 1 7287 5 10360 7 9166
3113 -2.535147830286173 0.21200281574036522 3.8651877678734383 52 46 46 0.78484491999946848 6 7892 3 6372 2 5747 1 4062 7 4388
3112 -3.428629861947075 0.2838568432072951 3.6897395691417909 30 32 27 0.32988654678982038 4 8687 6 8766 3 6365 2 6963 1 6025 5 10385
3111 -3.6771560654299114 0.23572231337718469 3.3193195563728368 213 218 217 1.3010084062078824 3 6364 2 7729 6 9677 1 8129
3110 -4.0628574289443478 0.26796278548602503 3.2103208520398749 32 41 35 0.70242273977587844 6 8758 3 6362 2 5725 1 6013
3109 -4.1115633741587718 0.23221603553530301 3.2600202829670204 216 221 221 1.4461144895986449 4 7808 6 9329 3 6360 2 6960 1 7281 5 10378
3108 -4.3112238371776623 0.22476360363957731 3.2843624203369703 16 24 21 0.84249837024559593 4 8681 3 6359 2 6943 1 7280 5 10757
3107 -4.5378183060596626 0.28097881455794466 3.2496079880800988 211 220 220 0.65894534119599546 4 7805 3 6358 2 5721 5 10403
3106 -4.6131726926259145 0.30969366315402619 3.2507647650245919 135 141 139 0.60211020347378708 4 8680 3 6357 2 6957 5 10402
3105 -4.6039641828981273 0.2784447781238526 3.269196512750185 207 214 213 0.79744629817448653 4 8679 3 6356 2 5720 5 9730
3104 -4.971576021626662 0.28127754331318583 3.6370869420959688 203 212 208 0.35389956943532397 4 8678 3 6355 5 10374
3103 -2.9292921172091719 0.11534729847636348 3.9843146226354218 212 217 215 1.7336716376302221 4 8671 3 6349 2 7720 6 9298 5 10355
3102 -3.1693557021124632 0.098873619432020679 3.7343188775468645 39 44 41 0.26458362425823745 4 8670 3 6348 5 10354
3101 -4.0128719586597938 0.17532484919589725 3.3049350892742426 202 206 203 1.7247490528569493 6 8733 3 6342 2 6945 1 5976 5 10350
3100 -4.0563523839812374 0.13123947787363519 3.3364282334520645 231 236 232 0.75281185148860286 4 8667 3 6341 2 7710 6 9308 1 8106
3099 -2.0125980860087007 -0.095703351556262972 4.1507915733231959 194 203 201 0.52469677083672706 6 7759 3 6325 2 6930 1 7247 5 9640 7 9116
3098 -2.8884274070967351 0.036576268894359852 4.0810230591753838 53 51 47 0.58484796012178053 6 7802 3 6319 2 5669 1 5946 5 10330 4 8645 7 9136
3097 -3.0550920189005804 -0.029370430991141859 3.8698111795863319 204 209 207 0.44500621164010284 4 7753 3 6316 2 6924 6 8684 5 9626
3096 -3.3495002414063748 0.020015119604434854 3.7683279061677237 60 61 49 0.28448271039847006 4 8643 3 6314 2 6921 1 7263 5 10327
3095 -3.4167702566776783 0.014865858740349116 3.7585116742216846 211 214 213 0.79654022381611256 4 8639 3 6309 1 7261 5 10325
3094 -3.6850575715541831 -0.017137980255274701 3.7720350987021884 62 63 56 0.52262891230686714 4 8611 6 7795 3 6308 2 5597 5 10289
3093 -4.1559958399306245 0.10700096464593362 3.3102070470527689 35 43 33 0.53723706399705551 6 8731 3 6306 2 6914 1 5932 5 10739
3092 -4.216902118320534 0.09847933201684185 3.3203213537845584 176 185 184 0.58177850639061901 4 8637 6 8704 3 6305 2 6912 1 7258 5 10348
3091 -4.3240221123193248 0.070560391681118856 3.4330697101324645 198 204 199 1.539261636859611 4 8636 3 6303 2 6911
3090 -4.9711658699618413 0.12091943644169373 3.9768106944238846 26 34 30 0.28657867164020367 4 8629 3 6300 5 10317 2 5648
3089 -2.0353683509752374 -0.13700973970589744 4.2064332476971416 28 35 33 0.23500237724537665 6 8666 3 6294 2 6900 1 7245 5 10310 7 9088
3087 -3.1244028718658514 -0.11166315231174359 3.9028951358679622 197 205 202 0.96492933462922592 6 8655 3 6283 2 6890 1 7238 5 10298
3086 -3.2858916498260111 -0.095240367457095812 3.8666413456551232 210 212 211 0.47681320242656322 4 8618 3 6282 5 10295
3085 -3.4764701993120575 -0.035759016014444596 3.760418962406948 35 38 32 0.6767922969188539 4 8615 6 8680 3 6281 2 6887 1 7235 5 10294
3084 -3.6211695880663473 -0.06093712012297061 3.8488439496834457 36 37 32 0.51544855138760537 4 8613 6 7798 3 6280 2 5599 1 3915 5 10291
3083 -3.6211695880663473 -0.06093712012297061 3.8488439496834457 36 37 32 0.51544855138760537 4 8612 6 7797 3 6279 2 5600 1 3914 5 10290
3082 -3.7290788530825782 -0.041404971769211048 3.8066652463228041 47 47 41 0.64106524050888536 4 8609 3 6278 2 5596 5 10288
3081 -4.1486978348815589 -0.082947224538602995 3.7565796193876007 230 235 233 1.8685889023729434 4 7699 3 6277 5 10284
3080 -4.3019271994377064 -0.044964553300416203 3.7027566536634793 194 201 198 0.53321037309137487 4 8608 3 6274 5 10283
3079 -4.7357253818021618 0.029360887649235595 4.0743686606192719 24 31 29 0.85650873300890906 4 8596 3 6267 2 6877 5 10707
3078 -1.9620800252448527 -0.28724059923904272 4.4645729536461376 178 190 188 0.19806907765722906 6 7714 3 6252 2 6870 5 10238
3077 -1.956241862196114 -0.32001090965619139 4.5132816504925799 26 33 30 1.3812847667456634 6 7713 3 6251 2 5564 5 10236 7 6611
3076 -2.322952117702866 -0.30651138192690974 4.5603383307147283 6 14 14 0.30626506816687749 6 8618 3 6247 2 6865 1 7158 5 9530 7 9052
3075 -2.3973720806123886 -0.33867381059173002 4.5374771603308321 192 199 199 1.0485783956549599 6 7667 3 6246 2 6864 1 5801 5 9524 7 8127 8 7425
3074 -2.428965717912559 -0.25442371329389535 4.4981981195491496 41 40 36 0.27983225740046297 6 8615 3 6245 1 7196 5 10233 7 9055
3073 -2.4990839591174225 -0.25250388704716181 4.4363055077635982 66 65 65 1.4049893976048398 6 8612 3 6244 2 7661 6 9237 1 7193 1 8054 5 10230
3072 -2.3974767991337638 -0.27985714159988956 4.520026555233966 206 211 205 1.1486151142892402 6 7707 3 6243 2 6862 1 7157 5 9527 7 9054
3071 -2.3974767991337638 -0.27985714159988956 4.520026555233966 206 211 205 1.1486151142892402 6 7708 3 6242 2 6863 1 7156 5 9528 7 9053
3070 -2.4617501331619902 -0.28637704714701551 4.4915214928053633 153 158 154 0.55959247665485867 6 8614 3 6240 2 6860 1 7154 5 10232 7 9051 8 7424
3069 -2.6723267103381825 -0.20973893101039984 4.1619686397613664 168 178 177 0.66368389778988057 4 7668 3 6239 2 6857
3068 -2.7545994857840403 -0.23735199914388888 4.2252450109458053 196 203 203 0.37723672895938759 4 7665 3 6237 1 5844 6 7706 5 9570
3067 -3.1704427267162831 -0.28293610636950584 4.5671617369731905 185 190 189 0.75241172009732971 4 8550 3 6233 2 7658
3066 -3.4710615768641131 -0.20882357912773047 4.2696401026497277 201 204 203 1.0244439185911014 4 8571 6 8605 3 6229 2 6850 1 7186 5 10258
3064 -4.0018027080410352 -0.12061278532324181 3.9629807982042666 54 52 48 0.27112899986738154 4 8567 3 6223 2 6839
3063 -4.2755298356109419 -0.11118909992151364 3.808875251236497 225 230 230 0.54023907734497545 4 8566 3 6222 5 10256
3062 -4.5556604173222182 -0.19031840501434064 4.2702977109714571 228 235 235 0.59172023959391828 4 7651 6 8647 3 6220 2 6836 5 10208
3061 -4.5831982276803043 -0.14372151173368003 4.1334232323638602 213 221 219 0.84193603069447198 4 7652 3 6218 5 10253
3060 -2.4657683504991508 -0.40436053616999496 4.5194522146779939 184 193 192 0.65721724836719164 6 8578 3 6201 2 6823 5 9485
3059 -2.5408951588533779 -0.39391693767679076 4.482701170408971 204 212 207 0.3874530112785462 6 7663 3 6200 2 6822 1 7153 5 9484 7 9035
3058 -2.8587407721592215 -0.31495212024414648 4.5107918475379369 25 27 26 0.60007611092017754 6 7704 3 6199 2 6854 5 10228
3057 -3.9081696167190638 -0.3596579292445572 4.3677350286117642 204 209 205 0.74541140706196141 4 8521 6 8569 3 6194 2 6811 1 7141 5 10180
3056 -4.0693459485634467 -0.25129428860055347 4.1411070671245707 201 206 202 1.0801103580592224 4 8545 6 8594 3 6193 2 6810 1 7139 5 10211
3055 -4.1220469349340085 -0.30880984046831589 4.1879382863497394 188 195 194 0.49901708311949361 6 8593 3 6191 2 6809 1 7137 5 10210
3054 -4.5405954919323195 -0.2148341517520046 4.2959411805339549 7 24 20 0.33967684370539369 4 8543 3 6189 5 10209
3053 -2.2541531914152944 -0.5562939759057719 4.6915419540447996 32 40 35 0.37078956436652483 6 7628 3 6170 2 6799 1 5712 5 9446 7 8051
3052 -2.3177910720892232 -0.48484059793919732 4.639374936234903 148 154 154 1.0027468828973918 6 8549 3 6169 1 8017
3051 -2.3183223764709835 -0.48537713558318485 4.6415324861113589 148 154 154 1.1376245509852911 6 8548 3 6168 1 8016 5 10193 7 9704
